106.29322 105.71669 105.00462 104.57756 103.963196 103.50401 103.08262 102.54413 102.211945 101.73558 101.380585 101.054886 100.64054 100.38618 100.01788 99.75191 99.48954 99.13046 98.88783 98.48829 98.17231 97.82555 97.35187 97.01551 96.50239 96.016884 95.67367 95.53386 95.671524 95.751816 95.75867 95.67758 95.50528 95.32085 94.92615 94.54729 94.11215 93.60402 93.27777 92.75552 92.34456 91.91197 91.31299 90.888054 90.382095 90.13586 89.87296 89.33647 88.87359 88.15837 87.596054 87.030396 86.31392 85.8499 85.291725 85.23315 84.80979 83.45673 81.99364 79.22764 76.723694 73.969536 70.59925 68.3722 65.8297 64.29045 63.36797 62.583138 62.596867 61.061256 58.60615 55.88888 53.282234 51.911633 51.595673 52.521908 54.275764 56.103687 57.453655 58.187233 57.831985 56.96683 56.43928 56.192738 55.698647 55.201206 54.720196 54.219685 53.961864 53.719807 53.594093 53.60474 53.638153 53.72492 54.082184 54.564384 55.059677 55.530876 55.767357 55.53563 54.976437 54.129208 52.989136 52.062523 51.855698 50.705242 52.925014 56.18405 59.316963 91.0069 118.09195 181.30042 309.1264 434.42166 573.0618 656.2452 701.5367 736.852 730.7028 726.5828 727.4233 727.2676 728.5445 729.75635 730.8053 731.08057 731.0302 731.2242 731.34973 731.4422 731.45325 731.4104 731.2394 731.02203 731.5093 732.40344 733.69073 735.1159 736.08295 737.80566 739.22754 740.8704 743.084 744.6684 747.2792 749.3506 751.62427 754.70197 756.87427 760.1241 762.5938 765.0288 768.1265 770.10156 773.2929 775.95465 778.5502 781.6986 783.62714 785.967 787.4473 788.522 789.92175 790.6641 791.7594 792.6123 793.37756 794.3166 794.8645 795.6629 796.26306 796.82385 797.55096 798.00977 798.6843 799.19946 799.6817 800.29126 800.66815 801.1927 801.5683 801.9108 802.36084 802.643 803.08795 803.4536 803.80255 804.21466 804.4553 804.8086 805.0736 805.32605 805.6606 805.8779 806.1952 806.43884 806.66156 806.94025 807.10925 807.30676 807.4339 807.5093 807.5959 807.6249 807.6159 807.573 807.5053 807.43994 807.3973 807.36743 807.3773 807.3884 807.3688 807.3386 807.26227 807.1939 807.0945 806.94946 806.83234 806.6507 806.5221 806.37 806.1413 805.9648 805.679 805.46185 805.2144 804.8698 804.6191 804.2037 803.8791 803.5119 803.01184 802.6541 802.0506 801.5718 801.02673 800.2963 799.78015 798.846 797.9915 797.13074 796.19653 795.68036 794.8776 794.25714 793.6266 792.7166 792.0586 791.4176 791.2177 791.0907 790.6492 790.24426 789.5946 789.06934 788.52814 787.8903 787.50305 786.79504 786.2521 785.53345 784.49994 783.70734 781.8608 779.9005 777.8342 775.71265 774.56995 773.1338 772.2534 771.49695 770.4153 769.724 767.987 766.15784 764.09216 761.7822 760.36584 758.229 757.1291 755.2079 751.4016 747.8957 740.60785 734.63855 726.25555 714.15515 704.6334 685.96985 673.83 651.82513 610.4876 572.3766 509.5582 457.83646 403.5828 333.46997 286.0512 237.441 213.55838 203.63286 188.6052 183.6344 179.58617 178.22403 179.8149 182.03867 184.93799 186.58003 186.22864 184.40297 182.03958 179.84392 176.7694 174.39365 172.39038 170.56714 169.97742 168.04286
106.31503 105.72736 105.029274 104.63123 104.0398 103.58288 103.15786 102.62473 102.29912 101.82263 101.46268 101.1247 100.69175 100.420555 100.02548 99.71956 99.44597 99.135025 98.97064 98.665016 98.39861 98.10319 97.7135 97.44189 97.0443 96.6953 96.438774 96.28051 96.312584 96.2969 96.26975 96.18116 96.00648 95.83684 95.431 95.02013 94.541176 93.98781 93.63282 93.074135 92.64181 92.18834 91.5582 91.1115 90.54593 90.226494 89.8941 89.30922 88.838936 88.10103 87.51863 86.9219 86.147606 85.631256 85.008835 84.93358 84.46356 82.96799 81.353226 78.40493 75.71789 72.91748 69.74322 67.84616 65.628624 64.38209 63.43372 61.931934 60.939533 59.182888 57.53018 55.99332 54.309124 53.39405 53.234962 53.975597 55.21345 56.353466 57.08767 57.34089 56.815132 56.13655 56.114666 56.50753 56.53393 56.200237 55.603638 54.83417 54.20971 53.60376 53.31807 53.254524 53.182552 53.233047 53.537743 54.0598 54.47427 55.013565 55.39477 52.89543 49.215183 43.714275 35.4473 28.441864 24.865128 15.914555 27.346996 71.56166 124.88029 217.83884 296.46072 383.2268 495.20935 572.541 657.9563 710.3786 735.46423 752.6369 743.5389 735.638 733.713 732.4025 731.3129 731.1931 731.11456 731.0766 731.2096 731.40576 731.62305 731.8754 732.02094 732.13324 732.1969 732.1674 732.6324 733.29047 734.22955 735.3409 736.1259 737.63916 738.9521 740.5073 742.5671 744.03986 746.42456 748.2615 750.31226 753.17957 755.2597 758.45447 760.94666 763.4332 766.5532 768.53424 771.62006 774.0394 776.47656 779.73175 781.93524 784.6546 786.41876 787.7474 789.416 790.2907 791.5063 792.3902 793.1583 794.16736 794.7855 795.6469 796.2701 796.8304 797.5566 798.0043 798.66644 799.1765 799.6522 800.24817 800.61255 801.1226 801.485 801.8243 802.28827 802.59436 803.0544 803.41626 803.7553 804.163 804.40247 804.7581 805.0271 805.2867 805.6306 805.8553 806.1846 806.4385 806.6714 806.9627 807.13965 807.3461 807.47845 807.5575 807.6491 807.6809 807.6786 807.64197 807.5827 807.5299 807.49744 807.47797 807.49207 807.50555 807.49115 807.4646 807.39636 807.33545 807.2456 807.1145 807.00806 806.8412 806.7232 806.5801 806.3627 806.1926 805.91327 805.69904 805.4524 805.10895 804.85803 804.44507 804.12305 803.76117 803.26996 802.9202 802.3329 801.8702 801.3419 800.6301 800.12445 799.2057 798.37604 797.51764 796.53485 795.94806 795.091 794.4676 793.8493 792.9342 792.26855 791.6017 791.36633 791.20667 790.7599 790.3744 789.6744 789.0347 788.3812 787.6819 787.2991 786.6571 786.1774 785.5949 784.78156 784.1867 782.71454 781.1848 779.4358 777.4474 776.1997 774.3138 772.8246 771.4269 769.7457 768.7552 767.28046 766.14526 765.0759 763.7735 763.001 761.61975 760.8088 759.3012 756.355 753.6113 748.64624 744.9402 739.8176 732.1769 726.1007 713.88275 705.7207 691.0812 664.6194 640.62976 597.45526 563.1769 520.17596 455.64508 404.6311 338.24554 291.45975 254.27779 211.02364 189.2469 170.08429 163.03622 165.39359 167.67125 172.91289 178.59627 182.18813 183.88745 184.06915 182.29083 178.94379 175.73245 172.42293 169.44809 168.18208 165.54565
106.34296 105.77571 105.1034 104.7249 104.146996 103.690186 103.25751 102.71799 102.38665 101.90336 101.5398 101.19835 100.75952 100.483826 100.0798 99.751396 99.47696 99.21242 99.11372 98.891045 98.671196 98.42686 98.11933 97.9116 97.6318 97.43437 97.26378 97.04715 96.919174 96.74593 96.6447 96.52679 96.33362 96.18189 95.80661 95.42982 94.97563 94.422035 94.04544 93.45565 93.00072 92.523506 91.87119 91.41501 90.79706 90.40454 89.99481 89.34781 88.85575 88.0739 87.451935 86.81025 85.97413 85.41306 84.72213 84.58083 84.06521 82.555504 80.96507 78.02662 75.2738 72.48615 69.55304 67.97565 65.96117 64.821846 63.64545 61.24974 59.170242 57.221195 56.512253 56.338238 55.748398 55.392063 55.230766 55.4013 55.680435 55.80382 55.80898 55.592842 55.044846 54.76242 55.366314 56.42058 57.086506 57.06018 56.53249 55.73472 54.920956 54.168533 53.86733 53.83239 53.764423 53.81891 54.134327 54.63746 55.08342 55.55134 55.818665 54.32401 51.81762 48.613873 43.288643 38.564915 42.729416 36.869305 62.36694 143.92114 237.15588 373.63672 488.95312 582.54956 656.4584 669.89166 689.17413 705.86975 714.8637 724.55884 726.49316 728.8588 730.83374 731.30084 730.9711 729.56244 728.7395 729.00006 729.72565 730.34467 730.78015 731.43536 731.9429 732.43494 733.0265 733.37933 734.0079 734.506 735.11365 735.95483 736.5724 737.8833 739.0776 740.53503 742.45264 743.8348 746.0207 747.6527 749.49054 752.1273 754.076 757.1364 759.5603 762.0237 765.1405 767.15717 770.13226 772.2838 774.499 777.7409 780.10236 783.08563 785.0683 786.63873 788.6047 789.67816 791.0841 792.03516 792.828 793.93036 794.6246 795.56323 796.2246 796.79944 797.5424 797.98956 798.651 799.1624 799.6357 800.2243 800.58 801.08 801.43384 801.7703 802.24176 802.56146 803.0277 803.3827 803.7119 804.11633 804.3574 804.71857 804.9934 805.26135 805.61597 805.8487 806.1911 806.456 806.69977 807.00385 807.18866 807.4049 807.5432 807.62714 807.7256 807.76166 807.768 807.73926 807.6886 807.64685 807.6221 807.6109 807.62964 807.64575 807.63446 807.6089 807.5448 807.48773 807.40393 807.2821 807.18353 807.0266 806.9152 806.77783 806.56824 806.40314 806.1279 805.9148 805.66736 805.32275 805.0701 804.6576 804.33673 803.9793 803.4958 803.1536 802.58215 802.13446 801.62366 800.9317 800.4384 799.5442 798.7503 797.90906 796.90015 796.2612 795.3608 794.7273 794.11285 793.20215 792.5457 791.86414 791.5911 791.3935 790.9428 790.58075 789.8387 789.10254 788.33984 787.5553 787.1408 786.4816 785.98773 785.44147 784.6856 784.1504 783.0252 782.04626 780.7822 779.0406 777.7299 775.3537 773.15826 770.9686 768.53436 767.14465 765.7361 765.19257 764.87415 764.07825 763.46704 761.86926 760.5794 758.38245 754.6474 751.3372 746.1075 742.38477 737.84296 731.035 725.7557 716.7074 709.8636 701.2749 689.18555 680.14136 661.10266 649.0482 624.92 577.50024 532.62506 460.67642 400.1052 341.4564 274.12506 235.08112 196.72816 178.52519 174.56725 169.38103 172.18321 176.73709 181.28244 185.13695 186.56537 185.31563 182.0451 178.51775 174.37439 170.21973 167.89343 164.01314
106.42569 105.88761 105.23399 104.85966 104.29326 103.8587 103.43404 102.867035 102.49028 101.97595 101.61015 101.287155 100.87541 100.62831 100.26196 99.9638 99.70958 99.453224 99.345505 99.122444 98.90854 98.67903 98.39406 98.20641 97.972336 97.83917 97.709595 97.47578 97.28787 97.053246 96.90814 96.78198 96.629074 96.547 96.26064 95.94914 95.5428 95.02972 94.66113 94.054306 93.566444 93.0424 92.349434 91.872086 91.19079 90.73047 90.23717 89.4856 88.92005 88.036285 87.339935 86.63233 85.71403 85.10436 84.348694 84.12382 83.59291 82.147835 80.66993 78.11607 75.884346 73.58468 70.96892 69.4199 67.26567 65.91204 64.40212 61.554825 59.107777 57.008606 56.487423 56.628117 56.247917 55.98256 55.7603 55.739952 55.754406 55.62422 55.47586 55.177055 54.74432 54.52064 54.82867 55.454597 55.909515 56.0353 55.803528 55.439793 55.033752 53.490402 51.674717 49.458954 46.93253 45.28243 43.09603 41.368977 40.209015 37.538605 35.148796 42.37127 52.788483 71.71441 98.00955 119.63202 161.80338 190.85332 239.44958 329.53607 411.78558 528.05493 627.07745 699.00323 742.298 731.77106 724.07104 723.98346 723.8888 726.4821 729.6796 732.5986 733.90674 733.89136 732.9708 731.26904 730.24005 730.53406 731.35754 731.88745 732.17487 732.68604 733.12555 733.59705 734.19635 734.5955 735.2052 735.6215 736.1236 736.88824 737.4794 738.68805 739.77075 741.0787 742.7986 744.0328 745.9825 747.434 749.0717 751.4238 753.1634 755.93475 758.12317 760.41486 763.41534 765.4427 768.35474 770.37946 772.48114 775.6488 778.00385 781.10114 783.2412 785.04767 787.32214 788.6354 790.3186 791.4357 792.34064 793.58307 794.3429 795.3631 796.08215 796.6923 797.47046 797.92523 798.5935 799.1098 799.58057 800.16223 800.50824 800.9966 801.3452 801.6752 802.13184 802.43774 802.89294 803.24567 803.5777 803.9832 804.22577 804.5937 804.8761 805.1545 805.5223 805.7647 806.1234 806.4025 806.6604 806.98083 807.17523 807.404 807.55054 807.6421 807.7519 807.7957 807.8155 807.7984 807.7599 807.7329 807.71765 807.71844 807.7454 807.7674 807.76196 807.7382 807.67883 807.62604 807.5482 807.4359 807.3452 807.1982 807.09296 806.9608 806.75916 806.5996 806.32916 806.11725 805.86926 805.5245 805.2709 804.86145 804.5442 804.1948 803.7245 803.3944 802.84705 802.4211 801.93524 801.2733 800.8 799.93994 799.18384 798.36847 797.366 796.7119 795.779 795.1041 794.4588 793.55664 792.93805 792.25 791.91925 791.65466 791.1688 790.8081 790.05615 789.317 788.52893 787.65814 787.1467 786.4344 785.9403 785.4678 784.8263 784.405 783.58466 782.9504 782.0555 780.68243 779.56683 777.4013 775.35266 773.2003 770.7054 769.16693 767.63696 767.0578 766.7606 765.9551 765.3349 764.0387 763.1208 761.54584 758.7177 756.164 752.071 749.0176 745.4591 740.3145 736.4419 730.57434 725.713 721.4236 717.81067 716.848 711.44904 710.08826 698.51056 669.6613 639.13354 582.90497 534.11194 478.67795 406.68347 356.23737 294.96405 254.07765 226.4828 197.03915 186.8139 178.51045 176.71794 179.33427 179.56311 179.97906 179.1663 177.86716 175.50554 172.06358 169.15077 164.39442
106.50408 106.000854 105.35654 104.968895 104.40322 103.996124 103.58604 102.984795 102.55028 101.998856 101.63283 101.33815 100.968735 100.765 100.45863 100.22084 99.99643 99.716515 99.54589 99.25895 99.01814 98.77052 98.45414 98.2454 97.98439 97.82836 97.687195 97.45621 97.28501 97.06034 96.89654 96.771545 96.67414 96.666214 96.48593 96.259964 95.92549 95.48231 95.14194 94.53881 94.02641 93.461044 92.738525 92.2478 91.52958 91.03819 90.4937 89.65166 89.004684 88.0171 87.24897 86.4855 85.50504 84.86681 84.07837 83.78117 83.270035 81.97286 80.692 78.68433 77.186516 75.498375 73.11653 71.36855 68.84525 67.07379 65.231606 62.390118 60.229733 58.095528 57.195362 56.83233 56.004623 55.49673 55.132984 55.119606 55.30311 55.447525 55.584408 55.525574 55.315277 54.970383 54.518654 54.154102 53.931656 54.077106 54.213287 54.477894 54.76427 52.27842 48.45442 43.29924 37.475075 33.53228 27.968967 23.236824 19.887074 13.028229 7.128006 25.586693 52.858635 100.38938 167.83603 223.87674 312.1468 386.67218 455.85602 528.49884 564.5913 617.6569 664.3674 697.75916 721.0403 719.64264 720.34106 723.0089 725.1316 729.17523 732.328 734.90845 735.6118 735.0512 734.2619 733.13196 732.5478 732.944 733.65015 733.95874 733.9666 734.1234 734.32367 734.5996 734.962 735.2311 735.7824 736.245 736.8605 737.7425 738.4265 739.6585 740.68634 741.8789 743.46594 744.59546 746.41315 747.8056 749.35724 751.52057 753.0836 755.5663 757.4783 759.5464 762.40027 764.4319 767.3478 769.3992 771.4941 774.53186 776.7183 779.7179 781.86505 783.77954 786.2289 787.72046 789.6338 790.9179 791.948 793.3008 794.0865 795.1546 795.9222 796.571 797.3862 797.85406 798.5356 799.0588 799.5297 800.1105 800.4523 800.9355 801.28564 801.61 802.0407 802.3158 802.7496 803.10364 803.44635 803.85626 804.1009 804.4744 804.7626 805.0483 805.42505 805.6739 806.0435 806.33234 806.59985 806.9309 807.1313 807.3688 807.52124 807.6191 807.7383 807.7891 807.8199 807.8119 807.7819 807.76447 807.75415 807.76276 807.7966 807.8238 807.8223 807.7991 807.7408 807.68896 807.6125 807.50323 807.4154 807.2713 807.1672 807.0361 806.8371 806.68005 806.4115 806.1995 805.95074 805.60535 805.3513 804.94434 804.6297 804.28644 803.8262 803.5049 802.9748 802.56384 802.0958 801.45654 800.99896 800.1667 799.4354 798.64526 797.6788 797.0511 796.11395 795.3927 794.70325 793.8125 793.24054 792.5601 792.18506 791.8639 791.3396 790.9658 790.23663 789.5714 788.83167 787.9065 787.2831 786.48083 785.962 785.5087 784.8929 784.5066 783.7984 783.2458 782.52966 781.4791 780.6629 779.08044 777.66486 776.0488 773.9415 772.45795 770.6417 769.55066 768.634 767.22943 766.26514 765.05536 764.5917 763.77435 761.8733 760.04553 756.35974 753.1056 749.1246 743.7821 739.8656 734.14453 729.564 725.6139 721.8748 720.4951 716.5405 714.53754 708.199 694.8686 681.7094 653.86707 633.1605 599.307 540.3121 487.80505 410.11182 346.8094 291.57956 234.46304 208.04135 182.76578 171.44579 170.66345 168.25009 170.55374 173.08876 175.15477 175.91702 174.31697 171.32451 166.20656
106.763145 106.291664 105.67007 105.28671 104.69886 104.2462 103.791985 103.1724 102.74704 102.22318 101.88621 101.63021 101.30744 101.13673 100.87559 100.68454 100.48043 100.17696 99.95206 99.6066 99.337425 99.06811 98.71706 98.48474 98.20082 98.03428 97.89079 97.65757 97.489006 97.26395 97.09282 96.96553 96.8788 96.88737 96.73263 96.52692 96.213104 95.79877 95.47922 94.8796 94.35015 93.756935 93.00875 92.50173 91.77418 91.288734 90.752556 89.903984 89.244095 88.25168 87.46588 86.728584 85.89407 85.436646 84.663895 84.1297 83.39485 82.1072 80.99669 79.35466 78.28693 76.96422 74.7726 72.97182 70.22861 68.10779 65.97927 63.177273 61.299446 59.223965 58.086094 57.398304 56.37029 55.814087 55.274803 55.020386 54.98533 54.981007 55.10155 55.072495 55.02752 54.71011 53.802185 52.796307 52.351395 52.484547 53.460495 54.698383 55.79583 60.226013 65.462875 71.947945 79.245865 83.95888 91.53936 96.95296 103.61473 109.60626 111.992805 142.6462 178.56915 235.23047 316.94907 383.96606 484.43436 573.38336 642.2937 690.26404 690.62146 693.8647 698.58386 701.2116 707.5318 712.34033 718.58826 722.897 726.4146 730.9329 733.5668 735.6154 735.95465 735.28 734.8576 734.3652 734.2594 734.7083 735.261 735.4399 735.3089 735.2953 735.3746 735.5706 735.8656 736.12604 736.7369 737.3023 738.0418 739.04456 739.7979 741.0225 741.976 743.03296 744.46515 745.4774 747.129 748.42194 749.847 751.78455 753.15533 755.3357 756.99414 758.82477 761.42 763.31445 766.06464 768.0438 770.0456 772.81726 774.7367 777.56964 779.72455 781.7844 784.4235 786.1 788.30066 789.825 791.0782 792.6674 793.57306 794.78284 795.63617 796.34283 797.2452 797.7649 798.50256 799.0574 799.5437 800.1443 800.49225 800.9802 801.337 801.6562 802.06287 802.3076 802.70886 803.0442 803.3776 803.78174 804.03 804.4089 804.7007 804.9914 805.375 805.6289 806.009 806.30804 806.58655 806.9294 807.13617 807.3839 807.5436 807.64954 807.78107 807.8416 807.8868 807.89154 807.8717 807.86127 807.85095 807.86395 807.9059 807.9404 807.9424 807.9179 807.8565 807.8016 807.7211 807.6078 807.51764 807.3692 807.2606 807.12573 806.9242 806.7672 806.4979 806.2841 806.0346 805.6897 805.43695 805.0369 804.72894 804.39746 803.95526 803.64966 803.1477 802.76056 802.31995 801.7161 801.283 800.4942 799.80237 799.051 798.1326 797.5357 796.60944 795.86316 795.14746 794.2736 793.7408 793.0653 792.6551 792.2807 791.70605 791.301 790.5487 789.8929 789.1563 788.1848 787.5001 786.6515 786.1249 785.6874 785.08014 784.70184 784.0617 783.55884 782.9806 782.18823 781.6189 780.5542 779.69653 778.6026 776.95135 775.6385 773.807 772.491 771.26483 769.63934 768.58563 767.43054 767.0633 766.54694 765.2359 763.99854 760.88983 757.85 753.9805 748.90027 745.1716 739.82135 735.64575 732.03784 728.1893 726.36743 723.4505 720.7922 718.64606 717.74677 718.52905 714.7134 716.38135 703.3323 664.7499 621.6289 548.4021 483.80725 419.7055 349.55023 310.43756 266.7241 240.88641 227.14151 210.87328 206.33632 200.10397 195.92769 192.33815 185.8786 180.94044 173.41357
107.06831 106.60921 106.0267 105.68306 105.05291 104.46202 103.884636 103.26279 102.928 102.50013 102.21362 101.989655 101.69511 101.527626 101.27213 101.08868 100.88675 100.57955 100.346245 99.98991 99.71495 99.43809 99.06911 98.81929 98.53528 98.39221 98.27418 98.04472 97.86348 97.63465 97.48469 97.36238 97.234985 97.18437 96.94761 96.67555 96.31022 95.85819 95.536156 94.93113 94.39742 93.799576 93.02899 92.49691 91.793816 91.37709 90.923386 90.12627 89.475006 88.54522 87.79616 87.18593 86.72884 86.6847 86.00027 85.105705 83.89287 82.377235 81.2779 79.58347 78.38238 76.98299 74.87043 73.24662 70.57138 68.33082 66.06372 63.24447 61.433144 59.50375 58.49163 57.981506 57.302418 57.07452 56.46162 55.768227 55.049515 54.354362 54.02104 53.365974 53.688057 52.486626 47.85827 42.481133 35.702843 30.32043 27.145138 22.961075 20.6754 37.114094 62.781174 97.64913 136.21585 161.90057 201.19186 231.6109 261.94543 300.25626 324.64728 365.13715 395.7551 432.07397 486.92612 529.5165 592.98096 649.5558 692.0968 719.6195 716.62524 713.5871 711.71063 709.6359 711.626 715.36816 720.3742 723.97205 727.11694 730.61755 732.4278 734.0176 734.52527 734.3733 734.4396 734.328 734.4783 734.88184 735.2934 735.4784 735.4113 735.4899 735.6212 735.89624 736.3428 736.74164 737.5172 738.1954 739.0034 740.0613 740.81433 741.99695 742.8939 743.8678 745.205 746.15076 747.6892 748.8909 750.2138 752.01184 753.28253 755.3201 756.9018 758.6174 760.9661 762.6289 765.1058 766.9425 768.8091 771.30194 772.98083 775.69324 777.9177 780.1535 782.93463 784.70276 787.09973 788.81793 790.2815 792.12085 793.18713 794.55707 795.4751 796.2119 797.19604 797.7776 798.58057 799.1692 799.67236 800.2957 800.6516 801.145 801.50476 801.81793 802.2102 802.4383 802.8091 803.11224 803.419 803.8084 804.06024 804.44055 804.73016 805.01935 805.40204 805.6564 806.0401 806.344 806.62866 806.97797 807.18854 807.4429 807.60754 807.7198 807.8608 807.9288 807.985 808.00024 807.9875 807.9782 807.9627 807.9752 808.0234 808.0641 808.0672 808.0399 807.972 807.91095 807.82263 807.69934 807.6021 807.44336 807.3264 807.1844 806.9759 806.8158 806.54315 806.32654 806.07623 805.73175 805.4812 805.0882 804.78674 804.4661 804.0407 803.74915 803.27155 802.90424 802.48615 801.9115 801.49866 800.7449 800.0852 799.36444 798.4778 797.89703 796.98914 796.2538 795.54486 794.6828 794.1581 793.4818 793.06915 792.6759 792.0637 791.6203 790.7908 790.04456 789.238 788.2432 787.5887 786.77966 786.2859 785.87177 785.2661 784.8686 784.2194 783.7095 783.15314 782.4143 781.9043 781.0054 780.3145 779.4397 778.0741 776.9716 775.46545 774.4047 773.4342 772.21014 771.4684 770.29456 769.46924 768.46326 766.9867 765.87036 763.30115 760.97156 757.89325 753.5105 750.1003 745.1251 741.2344 737.7406 733.8203 731.7494 728.80707 725.7989 724.3429 725.5524 728.758 730.997 736.2151 732.1002 712.50275 688.14813 642.9708 604.38416 558.904 498.6878 455.42712 397.0585 354.56683 319.35178 278.8305 258.15005 231.09454 211.1442 197.0622 182.47108 177.43005 170.98749
107.41615 106.95788 106.39264 106.06632 105.398575 104.7035 104.04607 103.452576 103.219025 102.89297 102.656364 102.455345 102.17639 101.999756 101.729866 101.53449 101.31976 101.00218 100.76521 100.39679 100.10702 99.81468 99.42997 99.17175 98.88235 98.74386 98.627846 98.38459 98.18418 97.93775 97.79876 97.66507 97.46614 97.328186 96.97088 96.60119 96.16171 95.65429 95.32784 94.72829 94.20651 93.62923 92.86934 92.33838 91.68027 91.31132 90.948845 90.30866 89.80056 89.054955 88.398346 87.91097 87.7698 88.0394 87.42126 86.25808 84.67575 82.99141 81.90925 80.01679 78.41939 76.68571 74.51167 73.07677 70.58371 68.39502 66.1802 63.489468 61.795425 60.024986 59.11754 58.71286 58.258503 58.23546 57.502945 56.40626 55.136288 53.85122 53.120335 52.391335 52.45047 52.11081 50.1295 47.79534 45.65751 43.448227 44.184467 44.44451 44.81698 75.11403 117.89371 174.28865 237.51723 279.52896 343.45703 393.47592 442.00116 505.6135 547.45215 590.09827 609.55505 618.50354 635.6694 645.2853 660.1567 673.00214 683.75085 694.17773 698.21674 703.65125 707.5344 710.5659 714.64233 717.0121 720.74457 724.0363 726.8082 729.416 730.37274 731.5453 732.351 732.8171 733.34546 733.4992 733.83203 734.18054 734.5126 734.8346 734.9765 735.3265 735.6296 736.07385 736.76965 737.3483 738.3189 739.1131 739.97406 741.0735 741.8121 742.95374 743.80817 744.7246 745.9993 746.90454 748.36145 749.4862 750.72504 752.42255 753.6291 755.57965 757.13837 758.7778 760.89667 762.3137 764.495 766.1676 767.881 770.1042 771.5697 774.1094 776.2891 778.5659 781.3777 783.1893 785.7309 787.6113 789.27594 791.36035 792.59753 794.14856 795.152 795.9418 797.03107 797.68774 798.57623 799.21466 799.74994 800.4165 800.794 801.30945 801.6818 801.9972 802.39075 802.61487 802.9627 803.2314 803.505 803.8772 804.13226 804.5138 804.80115 805.08844 805.46936 805.7227 806.10803 806.41504 806.70374 807.05664 807.2691 807.5274 807.6952 807.8116 807.9595 808.0332 808.09753 808.1207 808.11176 808.09906 808.07477 808.0822 808.1333 808.1779 808.18066 808.15063 808.07556 808.0073 807.90936 807.7738 807.6675 807.49567 807.36884 807.21844 807.0008 806.8366 806.55963 806.3401 806.0899 805.7477 805.50085 805.1169 804.8235 804.5145 804.1061 803.8283 803.37384 803.0249 802.6277 802.0807 801.6872 800.9678 800.33923 799.6494 798.7953 798.2317 797.3533 796.6481 795.96234 795.1139 794.58606 793.9071 793.5012 793.1022 792.46234 791.98486 791.08856 790.2588 789.39636 788.4142 787.8267 787.069 786.5891 786.1574 785.5108 785.0628 784.3407 783.7721 783.165 782.3668 781.82306 780.9384 780.2644 779.4961 778.3516 777.4762 776.37366 775.68024 775.08 774.3375 773.9257 772.70233 771.38666 769.78143 767.9117 766.6855 764.4021 762.63635 760.2658 756.52167 753.4482 748.75824 745.0683 741.456 737.1036 734.4663 730.462 726.73517 724.0836 722.7103 723.401 724.07513 725.57263 725.0773 721.43646 716.7057 704.54565 697.70935 679.2618 639.9771 601.014 539.2026 488.36224 438.09348 380.0627 346.04126 299.90146 264.73398 238.01804 210.89914 200.82745 188.02852
107.794914 107.33722 106.726265 106.331245 105.64486 104.996124 104.414505 103.88662 103.69175 103.40775 103.19667 103.00637 102.73692 102.558014 102.27038 102.05437 101.80796 101.44788 101.177444 100.75944 100.42297 100.099236 99.7113 99.47888 99.18179 99.002686 98.83308 98.544945 98.32286 98.03612 97.86561 97.69088 97.42518 97.23188 96.7985 96.3643 95.88137 95.34843 95.03053 94.46457 93.98718 93.457695 92.73578 92.218636 91.55986 91.1012 90.757416 90.42637 90.32711 89.94131 89.41674 88.91325 88.69357 88.81226 88.124374 87.006 85.54382 84.06402 83.18413 81.20198 79.189964 77.00021 74.59567 73.1822 70.85502 68.868965 66.95101 64.68992 63.353275 61.663094 60.527122 59.665092 58.80574 58.531223 56.93235 55.366966 52.59061 47.480858 42.727013 38.083702 31.689348 33.576416 49.086918 69.82484 102.9306 128.9357 157.17578 190.87198 212.02425 256.83575 299.82968 348.00143 405.60306 442.94525 499.78064 544.5343 587.4314 643.834 680.9077 713.7684 725.13605 723.11273 723.4731 719.4442 713.6071 708.073 704.27454 703.97406 707.0382 710.83484 713.12305 715.3725 718.247 720.08765 722.9103 725.3785 727.3933 729.12146 729.5778 730.3398 731.0347 731.59906 732.21655 732.50146 732.9524 733.28394 733.65424 734.2208 734.65344 735.3718 735.9195 736.56885 737.51447 738.232 739.35474 740.2389 741.1411 742.2881 743.03424 744.14856 744.95886 745.8079 747.00824 747.862 749.2225 750.26544 751.4069 752.97064 754.07837 755.884 757.34937 758.87366 760.7934 762.04333 763.9936 765.51086 767.06635 769.06683 770.3765 772.6427 774.5267 776.58936 779.3178 781.2136 783.942 786.0051 787.88965 790.22186 791.6184 793.3764 794.5224 795.4271 796.66046 797.397 798.3873 799.09485 799.68274 800.41815 800.83374 801.39233 801.7917 802.12054 802.5305 802.75934 803.0924 803.32886 803.56976 803.92773 804.18823 804.5758 804.8659 805.15656 805.54083 805.7962 806.1866 806.49976 806.7944 807.1523 807.36664 807.62823 807.79865 807.91864 808.07294 808.1522 808.2233 808.253 808.2464 808.229 808.19556 808.19604 808.2473 808.2936 808.2954 808.2638 808.18317 808.109 808.00305 807.85736 807.7435 807.56116 807.4256 807.26807 807.0433 806.87585 806.5962 806.3745 806.1255 805.78735 805.54596 805.17346 804.8899 804.59424 804.20514 803.94244 803.51355 803.1851 802.81165 802.2961 801.92474 801.2461 800.6553 800.00366 799.19165 798.6518 797.80634 797.12756 796.46094 795.63074 795.1085 794.4244 794.0055 793.58685 792.92285 792.42676 791.5261 790.7074 789.8689 788.92755 788.3798 787.60406 787.05676 786.5268 785.77936 785.2654 784.4726 783.8638 783.23883 782.4123 781.8552 781.0198 780.41095 779.76935 778.8294 778.1375 777.27 776.74854 776.27094 775.6305 775.2332 774.03796 772.7566 771.1702 769.29535 768.04175 765.766 763.9373 761.68506 758.4097 755.89343 751.959 748.8051 745.67944 741.9009 739.587 736.0657 732.75024 730.4265 729.1455 729.65265 731.0895 731.9952 734.32556 739.51416 744.7858 749.4955 756.9488 753.47076 732.28595 704.8531 656.76556 615.3257 570.47626 517.7053 484.5927 433.4914 392.45853 353.4011 305.8472 277.13184 238.42221
108.02573 107.56325 106.87401 106.37207 105.690346 105.18593 104.77162 104.31632 104.10126 103.79854 103.582596 103.384895 103.11035 102.92983 102.621544 102.37927 102.09591 101.68808 101.38172 100.911964 100.52567 100.17222 99.79441 99.60521 99.30239 99.06337 98.81774 98.47849 98.24185 97.914085 97.694336 97.47183 97.16351 96.953285 96.49689 96.04044 95.54765 95.01507 94.70934 94.1854 93.76269 93.28854 92.616425 92.12169 91.43412 90.820335 90.43773 90.41951 90.77874 90.75505 90.34904 89.73401 89.16316 88.82764 87.99672 87.16646 86.1644 85.08267 84.44138 82.422615 80.06209 77.431465 74.72331 73.20789 71.00696 69.31044 67.806 66.04661 65.08797 63.389336 61.890144 60.35962 58.80054 58.03319 55.379417 53.5115 49.165085 39.412003 29.59205 19.83815 4.9464073 9.353703 46.97364 97.10285 174.98976 237.20148 300.0174 375.9809 423.44333 477.1358 506.87985 526.77167 557.17957 575.2371 602.89417 624.997 645.7662 672.40466 689.3262 705.3971 712.2754 713.2247 715.1029 714.0886 712.4053 710.50073 709.1615 709.4508 710.9724 713.35016 715.1269 717.18243 719.98517 722.0262 724.6404 726.5104 727.8736 729.2252 729.6667 730.2446 730.65106 730.9373 731.32025 731.5212 731.94885 732.2911 732.7895 733.6122 734.31354 735.36633 736.14233 736.9607 738.07635 738.8536 740.03644 740.94904 741.85706 743.0259 743.7848 744.89575 745.6894 746.5094 747.67914 748.5115 749.8274 750.83246 751.924 753.4147 754.4649 756.1822 757.57605 759.0331 760.883 762.09906 763.97015 765.407 766.8725 768.7994 770.0841 772.1186 773.624 775.33777 777.8959 779.84375 782.6769 784.83545 786.84247 789.30115 790.77435 792.664 793.9308 794.9464 796.28864 797.07367 798.1345 798.8967 799.5318 800.3275 800.77954 801.3813 801.80786 802.1548 802.59 802.83264 803.1667 803.38684 803.60815 803.9598 804.22485 804.6189 804.9138 805.20935 805.59863 805.8562 806.25085 806.5681 806.8662 807.2264 807.44086 807.7026 807.8732 807.9936 808.14954 808.23065 808.3031 808.3339 808.32605 808.3034 808.2634 808.25726 808.30524 808.34985 808.35 808.31836 808.2356 808.15875 808.04913 807.8987 807.78143 807.5939 807.45447 807.2937 807.0655 806.89667 806.6162 806.3939 806.14655 805.81244 805.5757 805.2115 804.9345 804.64716 804.269 804.0146 803.59985 803.2825 802.92206 802.42413 802.0654 801.4114 800.8434 800.21594 799.43164 798.9088 798.0868 797.4269 796.77405 795.95667 795.4381 794.7486 794.31354 793.8808 793.21136 792.7186 791.8639 791.12 790.35547 789.4699 788.9386 788.1091 787.46045 786.80457 785.94385 785.37146 784.51654 783.8781 783.23627 782.3689 781.7799 780.92834 780.3203 779.7066 778.82983 778.2073 777.374 776.85114 776.3114 775.4891 774.88324 773.7441 772.8393 771.6531 769.9494 768.6368 766.05115 763.67645 761.0246 757.8365 755.7659 752.50574 749.8217 747.2671 744.33325 742.6756 740.03217 737.5579 735.63513 734.2038 734.0698 734.14526 733.72815 734.5543 737.80426 741.695 745.6958 750.5527 749.827 740.6553 727.91235 703.86523 683.40344 658.59393 627.54193 606.18164 563.2119 525.95325 479.72333 413.97644 363.73895 294.5723
108.24549 107.76835 107.05652 106.52971 105.913475 105.55364 105.2883 104.91027 104.68528 104.37676 104.16531 103.96689 103.686356 103.49655 103.19041 102.96926 102.70004 102.28163 101.950195 101.42621 100.98946 100.57402 100.12182 99.88255 99.48422 99.15514 98.81701 98.37944 98.089355 97.66388 97.35166 97.04079 96.63952 96.3815 95.865974 95.362724 94.846924 94.31304 94.03265 93.5227 93.05019 92.5878 92.09972 91.8468 91.35921 90.755165 90.36835 90.498764 91.0337 91.2013 90.926315 90.35926 89.728134 89.246765 88.37887 87.652885 86.81317 85.860374 85.28477 83.38177 81.1563 78.609566 75.87882 74.25316 71.99582 70.33698 68.90095 67.23981 66.37199 64.484276 62.677834 60.60861 57.637775 55.369602 54.087822 52.92002 55.279743 61.92495 69.638306 84.65474 88.20346 109.63676 167.1396 228.52084 321.96127 396.2009 468.37888 556.5533 611.2549 660.21136 676.06573 674.642 682.56213 685.42725 689.80054 693.57886 696.4605 699.2697 700.1989 702.438 704.96454 707.3669 709.5568 710.4413 711.7004 712.6441 713.44714 714.39844 714.89594 716.2795 717.6763 719.4703 721.9811 723.9147 726.08997 727.35034 728.1311 729.09875 729.50165 729.94904 730.15643 730.3108 730.66583 730.954 731.5531 732.03973 732.7295 733.82135 734.73206 736.04205 736.9927 737.932 739.1695 739.9846 741.20447 742.1318 743.0416 744.2342 745.01544 746.118 746.87756 747.6442 748.7578 749.55225 750.805 751.7632 752.7969 754.19965 755.18085 756.7818 758.0764 759.4318 761.1643 762.31024 764.05994 765.3923 766.7499 768.5642 769.79144 771.62146 772.85785 774.30676 776.6638 778.55786 781.32715 783.4278 785.4243 787.90826 789.4389 791.45337 792.8459 793.9998 795.48926 796.3592 797.53503 798.37836 799.08325 799.9722 800.4821 801.1571 801.6328 802.01746 802.50104 802.77026 803.13184 803.3678 803.593 803.94244 804.19653 804.5891 804.8941 805.2039 805.6044 805.86725 806.26935 806.59265 806.8948 807.25757 807.4713 807.73193 807.90106 808.02014 808.17584 808.2576 808.3294 808.3595 808.3492 808.3213 808.276 808.26245 808.30273 808.3427 808.3437 808.31757 808.2392 808.1632 808.05273 807.90137 807.78265 807.5932 807.4518 807.28973 807.0606 806.8917 806.6135 806.3932 806.1507 805.8251 805.5964 805.24554 804.9792 804.7035 804.34015 804.09564 803.6982 803.3946 803.05084 802.57574 802.2337 801.6129 801.07574 800.4825 799.7392 799.2427 798.4582 797.82776 797.1989 796.4085 795.9032 795.2171 794.7667 794.32135 793.6551 793.17487 792.3848 791.73114 791.0616 790.25745 789.7603 788.9338 788.25616 787.5462 786.6346 786.02856 785.1126 784.4286 783.72437 782.74347 782.0534 781.12177 780.4947 779.90326 779.0625 778.487 777.66644 777.1257 776.5256 775.5685 774.8201 773.6952 772.99664 772.0485 770.4616 769.13806 766.4596 763.87415 761.1117 758.09406 756.3469 753.5854 751.28253 749.1383 746.70374 745.36523 743.3248 741.5966 740.14465 738.7024 738.11505 737.2042 735.8925 735.5612 737.0659 739.535 742.5645 745.0451 746.306 746.4508 745.2763 740.9985 737.9803 730.69507 718.9839 708.6087 677.9349 649.4662 606.2625 540.47437 485.73328 402.6034
108.33266 107.82164 107.15997 106.720375 106.2078 105.9156 105.6975 105.35954 105.14043 104.84433 104.6485 104.45957 104.17146 103.961876 103.68923 103.55093 103.36802 103.00092 102.67286 102.12215 101.66606 101.17916 100.57051 100.17031 99.59294 99.17346 98.76436 98.210106 97.83902 97.28772 96.871376 96.46439 95.953064 95.63373 95.05206 94.51759 93.98125 93.41031 93.10563 92.51446 91.85466 91.33735 91.13722 91.33016 91.23491 90.78293 90.37627 90.36961 90.67316 90.77034 90.60485 90.29845 90.07403 89.97223 89.23814 88.27993 87.08336 85.84321 85.10643 83.50545 82.03667 80.23575 77.80426 76.01553 73.34011 71.280624 69.28645 67.200096 66.18593 62.456974 59.02942 53.24965 41.68526 30.615993 25.14122 19.176525 32.814243 76.44972 127.59418 201.03021 254.31354 307.72467 376.2553 420.83658 485.47635 535.2563 579.87024 635.82404 669.684 699.14606 707.6997 705.1863 708.69806 709.8016 710.94904 711.786 711.76166 710.99835 709.698 709.0708 709.5569 710.4689 710.9689 711.1003 711.97076 713.1357 714.50256 715.8366 716.5526 718.0608 719.4822 721.0994 723.22656 724.73474 726.41235 727.361 727.92926 728.6699 728.9917 729.399 729.5849 729.8343 730.42523 730.98065 731.9195 732.65106 733.5194 734.76404 735.70374 737.0406 738.0039 738.9364 740.17114 740.9793 742.1919 743.11237 744.02234 745.2345 746.0432 747.13617 747.8522 748.557 749.6127 750.3729 751.5802 752.5122 753.5158 754.86584 755.804 757.3238 758.54736 759.8219 761.45044 762.52435 764.17413 765.4344 766.72614 768.4493 769.6155 771.3963 772.65283 774.09534 776.3405 778.09424 780.6408 782.5267 784.35944 786.75543 788.31665 790.4122 791.8888 793.1509 794.7603 795.709 796.9842 797.8914 798.64923 799.612 800.16833 800.9037 801.4214 801.83936 802.36334 802.6538 803.04944 803.3233 803.57056 803.9109 804.13135 804.50793 804.82654 805.15955 805.5736 805.841 806.24805 806.5755 806.87885 807.2411 807.4524 807.70886 807.87427 807.98956 808.1416 808.2217 808.29004 808.31665 808.30286 808.2716 808.2247 808.20715 808.2417 808.2788 808.2837 808.26556 808.19556 808.1235 808.01544 807.8673 807.75024 807.5629 807.4229 807.26215 807.03467 806.8669 806.59174 806.37427 806.1364 805.8184 805.5962 805.25543 804.99713 804.7294 804.3754 804.1365 803.7495 803.45447 803.1214 802.6615 802.33093 801.73376 801.2186 800.65063 799.93933 799.4648 798.7116 798.1053 797.49744 796.7328 796.2428 795.5663 795.10913 794.6596 794.0053 793.54297 792.8063 792.2135 791.6132 790.8779 790.41766 789.6619 789.0603 788.41235 787.54834 786.9511 785.9968 785.2617 784.46155 783.32117 782.48584 781.4413 780.8021 780.2392 779.39655 778.81696 777.98126 777.41956 776.7994 775.84314 775.1122 773.9303 773.09906 772.0358 770.4073 769.1185 766.6362 764.34937 761.87024 758.99426 757.2119 754.41144 752.13 749.93677 747.25684 745.6199 743.53204 742.07837 741.00635 739.80927 739.2957 738.49524 737.39233 737.0625 738.14404 740.01025 742.3976 744.1458 745.4424 746.5994 746.8999 746.5597 747.39136 745.2482 739.61755 733.3594 713.4967 695.3429 666.08057 622.89856 587.3972 515.8331
108.35041 107.82999 107.252174 106.93271 106.52799 106.268845 106.05551 105.740776 105.533676 105.25348 105.07002 104.88924 104.6 104.38045 104.140335 104.06947 103.95733 103.638695 103.32134 102.75552 102.28589 101.73963 100.998634 100.460526 99.74192 99.26479 98.81628 98.17827 97.74284 97.092384 96.59603 96.112755 95.510765 95.13779 94.48889 93.89782 93.335014 92.7829 92.534294 91.93474 91.1271 90.549675 90.56879 91.106705 91.38775 91.21934 90.89754 90.670456 90.556435 90.39856 90.256836 90.173904 90.32364 90.609985 90.01528 88.8406 87.27602 85.667984 84.668236 83.28923 82.53119 81.514 79.52573 77.75684 74.887886 72.51869 70.113266 67.41663 65.88359 62.741776 60.24834 56.691944 47.923943 39.066673 42.176376 41.643375 70.42141 147.29976 231.91595 349.76822 442.96484 518.172 584.64856 603.75946 627.1492 642.79443 651.48175 664.7417 671.50616 679.2327 683.4805 686.3614 691.5023 695.047 699.4114 702.3122 704.3863 706.85754 708.01605 708.9493 709.1079 708.8667 708.7328 708.535 709.55865 711.2922 713.4978 715.6915 716.9751 718.9635 720.58673 722.09503 723.8962 724.9487 726.2334 727.0706 727.6564 728.3636 728.6876 729.1914 729.4902 729.93286 730.8214 731.63385 732.8838 733.84064 734.8404 736.15015 737.0347 738.2994 739.2147 740.0969 741.2768 742.0534 743.2305 744.1274 745.02747 746.24146 747.06616 748.15094 748.83923 749.5027 750.51166 751.239 752.4044 753.31256 754.2914 755.60175 756.5098 757.9632 759.1224 760.3219 761.8564 762.8656 764.431 765.63513 766.87866 768.5239 769.6326 771.41144 772.7734 774.2795 776.42316 777.9937 780.25684 781.89136 783.5106 785.7354 787.25684 789.34344 790.8384 792.1626 793.85406 794.8767 796.2454 797.2114 798.02136 799.0572 799.6615 800.463 801.0285 801.4888 802.0643 802.38416 802.8331 803.16504 803.4552 803.8096 804.00977 804.37714 804.7042 805.051 805.4768 805.751 806.16565 806.4979 806.8035 807.1678 807.37854 807.6332 807.7967 807.90936 808.0589 808.1373 808.20294 808.2267 808.2105 808.17896 808.1338 808.11285 808.13745 808.1675 808.17584 808.16833 808.11 808.044 807.9409 807.7991 807.68555 807.5032 807.36664 807.209 806.98584 806.8206 806.5514 806.339 806.1077 805.7996 805.58514 805.2559 805.00684 804.74744 804.40247 804.1679 803.78955 803.50146 803.17737 802.7301 802.40906 801.83215 801.3358 800.79034 800.1079 799.6539 798.9307 798.3473 797.7611 797.02527 796.5541 795.8933 795.43536 794.98566 794.34607 793.9011 793.20795 792.6594 792.1121 791.43286 791.0055 790.3361 789.8373 789.28845 788.5125 787.9508 786.9937 786.2319 785.3568 784.09216 783.1384 781.97546 781.2862 780.6977 779.80414 779.1923 778.31213 777.70844 777.0666 776.13873 775.4689 774.2338 773.2103 771.9793 770.3155 769.10767 766.9384 765.10803 763.03534 760.322 758.42847 755.4812 753.16 750.8273 747.75653 745.6992 743.3163 741.8534 740.93146 739.8728 739.4901 738.8772 738.14264 737.8105 738.1841 739.049 739.8468 740.53625 740.3755 738.87256 736.811 734.2528 733.5624 731.6297 726.90814 722.1684 711.7359 703.4137 690.62714 675.1813 664.4996 616.6175
108.3748 107.912125 107.4125 107.16725 106.8349 106.603714 106.40321 106.12066 105.936714 105.67622 105.494675 105.31363 105.043335 104.846245 104.61148 104.523346 104.3854 104.05178 103.731186 103.14275 102.634056 102.057175 101.312485 100.79494 100.10823 99.66355 99.2376 98.609535 98.16703 97.45932 96.880424 96.30509 95.63118 95.23309 94.51212 93.785675 93.1657 92.75302 92.7483 92.35551 91.59157 91.00627 91.02958 91.54989 92.04701 92.33798 92.37164 92.07658 91.58349 91.07502 90.81308 90.685814 90.73709 90.96791 90.391235 89.37076 87.89212 86.10139 84.789856 83.12701 82.247856 81.22654 79.60869 78.38083 74.421234 69.9976 64.62364 56.702568 50.35124 50.44612 52.843575 66.11243 91.413055 116.85776 163.42856 197.03955 246.55185 331.07904 404.4815 506.83316 590.3743 653.36035 702.1869 707.6463 710.8531 710.6839 704.8014 700.32495 696.493 694.6525 695.7932 698.78217 701.8786 704.32117 706.9513 708.30023 709.1192 710.45996 711.2718 711.8249 711.74255 711.4349 711.2737 711.17035 712.14966 713.7142 715.69324 717.69055 718.8753 720.61304 721.98645 723.1883 724.5576 725.2792 726.2754 727.0033 727.6207 728.3848 728.8147 729.53265 730.0467 730.7087 731.80853 732.72253 734.094 735.13666 736.1811 737.5196 738.3889 739.6476 740.5753 741.466 742.6398 743.4015 744.5561 745.43414 746.31696 747.51483 748.3329 749.4084 750.09906 750.7516 751.71796 752.396 753.48895 754.3432 755.26746 756.514 757.3847 758.7529 759.82776 760.93207 762.3523 763.28687 764.74805 765.8785 767.0523 768.5982 769.6381 771.3419 772.68976 774.1566 776.159 777.5766 779.6437 781.15265 782.6569 784.7124 786.11487 788.10016 789.55 790.8967 792.6582 793.77875 795.2665 796.30273 797.1757 798.3 798.9629 799.8469 800.4725 800.9878 801.6319 801.9928 802.5091 802.9023 803.2452 803.65094 803.8723 804.2491 804.56396 804.8939 805.3221 805.6089 806.0404 806.38544 806.7017 807.0755 807.2892 807.54767 807.71344 807.82764 807.97955 808.0594 808.1265 808.1509 808.135 808.10614 808.06396 808.0352 808.04004 808.0537 808.0638 808.0711 808.0269 807.96625 807.8656 807.728 807.61664 807.43744 807.30273 807.1476 806.9281 806.766 806.50415 806.2984 806.0763 805.7817 805.578 805.2654 805.02954 804.7828 804.452 804.22516 803.86017 803.583 803.27167 802.842 802.5336 801.9826 801.51044 800.99207 800.3432 799.9116 799.2209 798.6613 798.09845 797.3964 796.94965 796.3086 795.8521 795.39984 794.7672 794.3301 793.6663 793.15234 792.6474 792.01385 791.6147 791.00116 790.5555 790.0623 789.35254 788.83234 787.91547 787.17944 786.303 785.02136 784.03754 782.7786 781.9644 781.25555 780.2854 779.66833 778.762 778.11505 777.44293 776.5094 775.8598 774.64685 773.60645 772.4014 770.8411 769.75494 767.86847 766.34357 764.58673 762.1662 760.40594 757.6744 755.5768 753.38965 750.3665 748.2316 745.69446 744.1032 743.00507 741.7167 741.16394 740.2154 739.17163 738.49524 738.4023 738.92834 739.508 740.1402 740.1912 739.078 737.44354 735.81433 735.6583 734.9776 732.3126 729.38416 724.96814 722.266 718.4387 716.4636 716.97595 689.4669
108.3566 107.98163 107.53244 107.30693 106.98771 106.751114 106.54351 106.27624 106.115166 105.8694 105.680084 105.49249 105.24924 105.09123 104.84021 104.67726 104.45165 104.064865 103.73629 103.13632 102.59199 102.02521 101.38086 100.99687 100.46801 100.12131 99.7675 99.227196 98.82912 98.1299 97.51097 96.87963 96.187904 95.80185 95.040764 94.17824 93.503845 93.26987 93.55527 93.449425 92.858215 92.30298 92.147766 92.3614 92.8539 93.56734 94.024284 93.7671 93.02388 92.18581 91.72169 91.36602 91.02062 90.91626 90.26896 89.600555 88.48203 86.687294 85.12801 82.9091 81.34757 79.76175 78.340294 77.84837 72.59869 65.66005 56.626022 42.140785 29.684273 33.93371 42.47294 77.236 147.24509 218.09778 317.6023 393.79733 459.8004 528.6446 560.3137 606.197 645.4187 673.62756 696.70105 699.79205 702.2058 702.73224 700.9096 700.5156 700.2549 701.22687 702.99426 705.18634 707.3398 708.5836 709.6937 709.92004 709.9529 710.6594 711.39746 712.3583 712.98193 713.5646 714.29297 714.7279 715.78894 716.9022 718.1359 719.49927 720.3171 721.56824 722.5741 723.5106 724.612 725.24097 726.21173 726.9753 727.7215 728.66425 729.25824 730.22876 730.9845 731.82025 732.994 733.84515 735.1315 736.1101 737.0949 738.38354 739.2362 740.49493 741.44434 742.3616 743.5435 744.29865 745.43866 746.30347 747.1682 748.3377 749.1318 750.20264 750.9225 751.5995 752.551 753.19244 754.2279 755.03424 755.9122 757.1158 757.9686 759.2882 760.3097 761.3544 762.7077 763.601 765.0031 766.0917 767.2235 768.71094 769.7105 771.34705 772.64233 774.0494 775.9592 777.304 779.3095 780.8301 782.32544 784.26184 785.5177 787.3481 788.70184 790.01294 791.78674 792.97375 794.53827 795.6157 796.5266 797.7054 798.40533 799.34393 800.0105 800.5652 801.25964 801.65234 802.2195 802.65375 803.03845 803.5055 803.7722 804.1689 804.4594 804.75464 805.17615 805.4744 805.92255 806.2803 806.60876 806.99365 807.212 807.47687 807.64777 807.7659 807.9228 808.0053 808.07623 808.10364 808.0903 808.0659 808.0277 807.992 807.97797 807.9751 807.9845 808.0039 807.9703 807.91223 807.81213 807.6763 807.5658 807.3879 807.25385 807.0999 806.8831 806.7233 806.4672 806.2667 806.0518 805.76746 805.5718 805.2713 805.04553 804.80817 804.48773 804.2665 803.91095 803.6411 803.33777 802.9192 802.6188 802.08295 801.6249 801.122 800.4916 800.07184 799.3982 798.8503 798.3 797.6196 797.1906 796.565 796.11334 795.66016 795.0266 794.5864 793.92346 793.41266 792.9144 792.2912 791.9013 791.3014 790.85986 790.3808 789.70715 789.2244 788.37427 787.69977 786.88416 785.68475 784.7592 783.46375 782.51514 781.65356 780.6042 779.99164 779.0726 778.394 777.7 776.75226 776.10376 774.9569 774.0054 772.9264 771.5187 770.54236 768.82764 767.4189 765.8104 763.6368 762.0814 759.6647 757.8369 755.88275 753.12683 751.1397 748.5117 746.6432 745.12146 743.4087 742.5832 741.12805 739.51526 738.4197 738.14026 738.7953 739.82806 741.01013 741.6958 741.3058 740.14624 738.46387 737.6365 736.12177 732.99304 730.01904 725.5929 722.5193 719.0086 716.00226 714.993 700.78925
108.51927 108.20814 107.79566 107.57854 107.27417 107.05436 106.85691 106.592285 106.42444 106.16732 105.96728 105.769875 105.5301 105.384926 105.090515 104.839775 104.5194 104.06677 103.72228 103.11445 102.567116 102.01926 101.4266 101.10247 100.584206 100.168594 99.74965 99.20062 98.836044 98.3214 97.982796 97.615074 97.053894 96.6321 95.834366 94.899956 94.24006 94.23375 94.8214 95.03719 94.69034 94.18797 93.79883 93.605865 93.79594 94.509125 95.051346 94.77397 93.98624 93.023674 92.46696 91.92657 91.17638 90.66909 89.79169 89.2125 88.32466 86.70989 85.2709 83.01574 80.96537 79.29513 77.442604 76.47722 78.59491 81.75509 87.88348 93.29473 96.22627 122.618996 147.45142 197.8967 289.4094 374.89874 488.58154 577.37897 641.1131 687.1032 686.51044 688.16974 692.0619 693.052 695.61145 696.7033 698.27905 699.2681 700.42145 702.6457 704.5752 707.0655 708.85614 710.2064 711.5975 712.1343 712.4281 712.1327 711.84845 712.2417 712.909 714.08075 715.106 716.1988 717.4572 718.2289 719.2513 719.934 720.5465 721.40076 721.9598 722.87555 723.6309 724.39996 725.33875 725.9253 726.89624 727.6862 728.5196 729.5963 730.31604 731.4585 732.36664 733.29596 734.4865 735.26636 736.46136 737.3769 738.30646 739.5387 740.36536 741.6154 742.5834 743.5264 744.7159 745.4655 746.58765 747.4348 748.27325 749.39746 750.1509 751.2158 751.975 752.70465 753.6897 754.3409 755.3671 756.1539 756.995 758.1515 758.96655 760.2202 761.1843 762.1688 763.45135 764.3014 765.63464 766.67206 767.7464 769.1514 770.09064 771.6174 772.825 774.1229 775.86475 777.07477 778.9252 780.37537 781.7962 783.56586 784.67206 786.32184 787.5569 788.78503 790.4639 791.6097 793.1746 794.2919 795.2769 796.5337 797.29 798.3173 799.05304 799.68024 800.47 800.92694 801.5925 802.1039 802.564 803.1325 803.46796 803.92474 804.23285 804.5247 804.95605 805.2596 805.70825 806.0578 806.38104 806.7756 807.0101 807.2946 807.4776 807.6056 807.774 807.8624 807.942 807.9761 807.9689 807.95404 807.92303 807.8863 807.8617 807.84564 807.84607 807.86237 807.8326 807.78326 807.69543 807.57166 807.46844 807.30035 807.17224 807.02454 806.81805 806.66644 806.4243 806.2354 806.03375 805.7667 805.5834 805.302 805.0918 804.86914 804.5646 804.3516 804.00946 803.75024 803.4586 803.0563 802.7674 802.25433 801.8169 801.3373 800.73444 800.3325 799.69226 799.17664 798.65735 798.0093 797.5966 796.9856 796.5397 796.08466 795.44867 795.00354 794.33563 793.8226 793.3234 792.69995 792.3112 791.7083 791.2559 790.7729 790.11053 789.6468 788.8338 788.1848 787.41284 786.3092 785.4777 784.2223 783.2289 782.2898 781.1945 780.56696 779.6143 778.8952 778.1689 777.1917 776.5326 775.4394 774.5676 773.61255 772.3597 771.5007 769.9799 768.71173 767.28186 765.3895 764.06134 761.9962 760.4635 758.7767 756.3377 754.53613 751.9327 749.92566 748.12646 746.104 745.0416 743.2428 741.3768 740.03357 739.4096 739.8258 740.6266 741.5978 742.3218 742.4167 741.9323 740.61285 739.4997 737.6271 734.6023 731.9706 727.9904 724.90424 721.85443 718.1991 715.9934 712.77954
108.8016 108.500305 108.0989 107.87756 107.58687 107.40303 107.23015 106.95015 106.741295 106.44867 106.24419 106.043976 105.78249 105.614426 105.27255 104.97017 104.60267 104.1085 103.74828 103.1638 102.72097 102.21194 101.4811 100.9368 100.07567 99.331406 98.66577 97.95439 97.59668 97.40362 97.61759 97.79282 97.47739 96.962975 96.16211 95.2891 94.775444 95.05433 95.919716 96.4517 96.37674 95.94735 95.36376 94.80075 94.45055 94.64839 94.84979 94.55096 94.05589 93.34365 92.925766 92.34119 91.31 90.41746 89.03462 88.383896 87.02626 84.39633 81.95882 75.74844 68.63216 61.44033 50.741776 42.332977 55.96363 80.77789 122.34832 176.7377 219.88124 286.51514 336.82312 390.5309 465.175 518.43115 589.674 646.56036 685.5083 711.8686 708.26984 704.8661 703.706 701.596 701.26105 701.913 702.9833 703.7916 704.80646 706.19836 707.2449 708.6523 709.6076 710.4947 711.78204 712.6799 713.56165 713.82776 714.02325 714.7176 715.37695 716.4074 717.22974 718.05865 719.0828 719.733 720.5512 721.0303 721.48724 722.2433 722.8142 723.7637 724.55383 725.37335 726.36993 726.9979 727.9976 728.7853 729.6036 730.68304 731.4119 732.53613 733.4091 734.28955 735.4241 736.1649 737.3152 738.20557 739.11707 740.3192 741.12537 742.36365 743.3379 744.2926 745.48566 746.2341 747.34454 748.1791 748.9955 750.07654 750.78827 751.8471 752.63727 753.42645 754.48486 755.19543 756.27094 757.07733 757.9058 759.0269 759.79395 760.9951 761.93317 762.8981 764.1521 764.98486 766.2833 767.2931 768.32855 769.67413 770.5652 771.999 773.13257 774.3306 775.9138 776.9925 778.6716 780.0031 781.3251 782.9794 784.0261 785.5758 786.7374 787.874 789.3784 790.36835 791.8531 793.0146 794.1077 795.4489 796.2584 797.3699 798.1711 798.8674 799.75073 800.27277 801.0346 801.62 802.14984 802.8059 803.19543 803.7204 804.0814 804.40344 804.8497 805.1403 805.56055 805.87244 806.1681 806.56683 806.83057 807.14417 807.3401 807.47516 807.6523 807.74335 807.8274 807.8652 807.8613 807.85223 807.8255 807.791 807.7684 807.7476 807.73 807.7246 807.68726 807.65015 807.5833 807.4761 807.3821 807.2262 807.1061 806.9662 806.7722 806.6301 806.40283 806.22577 806.0363 805.78516 805.61206 805.3469 805.1504 804.9401 804.64874 804.44244 804.11115 803.86005 803.57776 803.18823 802.9087 802.41376 801.9927 801.53156 800.94995 800.56085 799.9529 799.47546 798.99176 798.37054 797.96405 797.3593 796.91754 796.46216 795.82434 795.3753 794.7005 794.182 793.6758 793.04346 792.6484 792.0292 791.5613 791.0574 790.3658 789.8795 789.0306 788.33075 787.5418 786.4884 785.7438 784.60095 783.69934 782.81903 781.742 781.08105 780.08344 779.33185 778.57526 777.5642 776.88574 775.8001 774.9516 774.048 772.8668 772.0692 770.66266 769.4881 768.17426 766.44543 765.2407 763.3686 761.99097 760.4568 758.2082 756.52704 754.0615 752.1517 750.3943 748.3546 747.2153 745.449 743.8634 742.6134 741.5993 741.40625 741.1733 740.99744 740.94836 741.0382 741.2537 740.7955 740.14966 738.8039 736.6515 734.7242 731.54663 728.87646 726.16595 722.6242 720.2174 719.2689
109.116394 108.78669 108.36333 108.119965 107.82886 107.67979 107.53483 107.23567 106.980934 106.644844 106.43081 106.22005 105.92018 105.713196 105.31677 104.97178 104.568726 104.037895 103.66146 103.06841 102.63636 102.13536 101.40586 100.859 99.87954 98.92408 98.066574 97.23342 96.86531 96.96929 97.71283 98.41353 98.351585 97.7694 96.96294 96.165215 95.72774 96.05663 96.92828 97.50555 97.55212 97.15774 96.445305 95.67082 94.814896 94.36066 94.04331 93.62201 93.404236 92.950294 92.6503 92.09489 91.0075 89.98771 88.43169 87.28149 86.03063 84.50865 83.55104 80.81937 76.875374 73.96023 66.86036 59.9075 89.70062 134.87665 205.02557 299.41156 374.42017 468.2457 534.0685 580.26306 623.0335 633.23865 649.1302 663.4706 673.4166 683.31305 686.257 690.75446 694.61395 697.54504 700.76556 702.16187 704.0402 705.4976 706.49786 707.42426 707.6275 708.1117 708.4165 709.0564 710.53625 712.01117 713.7879 714.87494 715.7402 716.8831 717.5501 718.3727 718.86975 719.2841 719.93225 720.38043 721.03845 721.47034 721.98425 722.82263 723.4976 724.6018 725.514 726.44904 727.5828 728.29266 729.3474 730.1368 730.91626 731.96185 732.6609 733.69586 734.46027 735.22986 736.269 736.97186 738.0812 738.95123 739.8518 741.02655 741.8113 743.03284 744.005 744.96375 746.15753 746.90686 748.0092 748.8332 749.6317 750.67834 751.3572 752.41425 753.2284 754.0728 755.2142 755.99976 757.1514 758.0017 758.84204 759.9544 760.68866 761.85297 762.7725 763.72125 764.9535 765.77295 767.04065 768.0245 769.02216 770.313 771.1606 772.5032 773.5585 774.65295 776.0837 777.0418 778.546 779.73706 780.93994 782.48016 783.484 784.94775 786.0437 787.08594 788.4039 789.2217 790.5794 791.7283 792.87225 794.2513 795.0977 796.2765 797.1338 797.8965 798.86914 799.45605 800.3132 800.97095 801.5702 802.31305 802.7565 803.36066 803.7925 804.1649 804.6438 804.9297 805.33124 805.61414 805.88464 806.2814 806.562 806.89746 807.1078 807.2566 807.4487 807.548 807.6445 807.69183 807.6973 807.7007 807.6822 807.65906 807.6494 807.6331 807.6024 807.5742 807.52765 807.50085 807.4541 807.3657 807.28436 807.1449 807.0346 806.9042 806.725 806.59375 806.38275 806.2185 806.0413 805.8051 805.64124 805.39056 805.2061 805.00684 804.727 804.5263 804.2043 803.9602 803.68567 803.3075 803.03613 802.55725 802.1502 801.70575 801.1444 800.76874 800.19305 799.7544 799.3052 798.7061 798.30023 797.6963 797.2566 796.7994 796.1574 795.7031 795.0157 794.4857 793.96387 793.31104 792.90076 792.2498 791.75024 791.21344 790.4868 789.9812 789.1055 788.3677 787.57355 786.5709 785.9044 784.8894 784.1148 783.33185 782.2974 781.60583 780.5727 779.80194 779.02484 777.9856 777.2864 776.1952 775.3551 774.4786 773.33527 772.5717 771.2326 770.1133 768.8733 767.2536 766.1354 764.40063 763.1275 761.70917 759.61865 758.04956 755.7772 754.05066 752.4555 750.5309 749.4029 747.8168 746.64813 745.6117 744.3254 743.5743 742.3301 741.04675 740.1431 739.92957 740.4884 740.5582 740.2947 739.42035 737.93304 736.51715 733.776 731.3429 728.51715 724.71027 721.93835 719.1777
109.34187 108.962395 108.487015 108.21172 107.90654 107.77543 107.65474 107.35666 107.08912 106.73226 106.50458 106.27352 105.93958 105.70317 105.2664 104.90599 104.46895 103.86267 103.41309 102.64648 101.875565 101.267395 101.01009 101.21251 100.90678 100.16836 99.340126 98.587 98.20783 98.45982 99.4706 100.43602 100.553955 100.00362 99.13022 98.262955 97.60446 97.472534 97.876076 98.02739 97.91175 97.50994 96.84744 96.21353 95.22279 94.40156 93.62173 92.84693 92.49406 91.62485 91.26585 89.93121 86.5956 83.11682 78.01169 72.04965 69.51829 71.00644 75.7472 95.046555 116.79376 145.97107 178.69897 200.1061 253.94292 307.153 373.36862 462.60315 529.0389 607.4813 660.8935 691.68 712.6862 706.31024 699.87695 696.62366 693.8987 694.0525 696.37134 699.538 701.9446 704.02527 705.7969 706.3102 707.3876 708.60376 709.5923 710.2406 710.21954 710.4279 710.5681 711.0646 712.3052 713.601 715.24506 716.35425 717.2529 718.288 718.807 719.44965 719.81354 720.1492 720.7684 721.2605 721.9881 722.4763 723.05084 723.9574 724.67395 725.8154 726.73566 727.67236 728.83093 729.5666 730.6474 731.449 732.234 733.2945 734.0055 735.01514 735.72845 736.4319 737.40594 738.0707 739.13654 739.9844 740.8679 742.00793 742.765 743.96423 744.93256 745.89526 747.0879 747.8368 748.9306 749.7424 750.5266 751.55566 752.222 753.2844 754.11273 754.99194 756.1916 757.0317 758.2503 759.14825 760.0191 761.15735 761.8943 763.03033 763.9066 764.7962 765.96625 766.746 767.94745 768.87866 769.8184 771.0346 771.8318 773.072 774.03815 775.0215 776.29865 777.14154 778.4625 779.50116 780.5571 781.9275 782.8333 784.16736 785.1778 786.1434 787.35065 788.094 789.334 790.3668 791.4292 792.7711 793.6448 794.8828 795.7939 796.62897 797.6927 798.34576 799.3036 800.03925 800.7154 801.5564 802.0631 802.75464 803.25354 803.6795 804.21564 804.52686 804.9525 805.24915 805.51843 805.90094 806.1583 806.4889 806.7164 806.89404 807.11365 807.23065 807.35315 807.4203 807.44476 807.4728 807.47015 807.46844 807.47675 807.4718 807.44476 807.40967 807.3625 807.33997 807.304 807.2337 807.1693 807.0501 806.95123 806.8308 806.6678 806.54816 806.3549 806.20465 806.04083 805.82025 805.6655 805.4293 805.25714 805.069 804.8008 804.6058 804.29333 804.0564 803.79047 803.4246 803.1626 802.702 802.31067 801.88586 801.3513 800.9954 800.4557 800.0535 799.6351 799.0583 798.6548 798.0516 797.6118 797.14984 796.50104 796.0399 795.338 794.7962 794.25745 793.5808 793.152 792.4579 791.90076 791.3224 790.5894 790.11194 789.2956 788.61383 787.88635 786.96234 786.348 785.3985 784.6744 783.9211 782.9014 782.19794 781.1487 780.36725 779.5783 778.52124 777.8078 776.72296 775.90125 775.06323 773.9722 773.25256 771.9982 770.94666 769.7983 768.31665 767.3094 765.7528 764.62415 763.3532 761.44574 759.99396 757.88135 756.27747 754.7766 752.93585 751.82855 750.3281 749.3176 748.37024 747.0121 746.0833 744.565 743.0925 741.9497 741.3546 741.6011 741.30176 740.7441 739.74805 738.26373 737.0027 734.86163 733.0999 731.17035 728.44965 726.44336 724.83844
109.40194 108.96503 108.4273 108.12095 107.792694 107.65791 107.54844 107.26416 107.01226 106.65891 106.42038 106.170074 105.81591 105.564926 105.11717 104.77688 104.331276 103.65822 103.12443 102.13068 100.891945 100.13086 100.511345 101.73025 102.42911 102.150345 101.51099 100.95717 100.5659 100.78175 101.73889 102.65274 102.81737 102.36502 101.41152 100.409 99.39373 98.56172 98.27353 97.760216 97.300285 96.85448 96.38097 96.14349 95.365845 94.50083 93.443596 92.27912 91.5579 89.97006 89.4572 87.089264 80.86172 74.263435 64.60716 52.533947 48.251804 53.15576 64.67317 111.60021 166.19827 236.07999 320.60785 379.7117 453.71893 501.87735 540.1176 590.88995 620.6658 655.4049 678.34863 690.9723 701.4976 700.70825 700.689 701.5302 702.1281 703.5518 704.7268 706.4536 708.0293 709.13275 709.4958 708.93134 709.04614 709.88116 710.9256 711.7334 712.0579 712.6599 713.14557 713.74023 714.6861 715.4509 716.4352 717.1038 717.65204 718.30206 718.6417 719.1823 719.55914 720.0252 720.81256 721.466 722.4121 723.0722 723.7752 724.7872 725.52167 726.6533 727.5362 728.42236 729.5495 730.27686 731.36255 732.17993 732.9889 734.07574 734.80554 735.8164 736.51245 737.1867 738.1323 738.7781 739.82227 740.65955 741.5333 742.652 743.3903 744.572 745.53357 746.4951 747.68475 748.4334 749.5246 750.32996 751.1115 752.1476 752.82605 753.89813 754.7236 755.6039 756.82 757.68066 758.9387 759.8746 760.7848 761.9727 762.7433 763.87823 764.71875 765.5496 766.66296 767.4057 768.551 769.43787 770.33514 771.5022 772.2716 773.45404 774.3664 775.2878 776.4906 777.2851 778.50745 779.452 780.40594 781.65265 782.4777 783.7227 784.67993 785.61884 786.81934 787.58746 788.75446 789.6304 790.53253 791.7831 792.65765 793.91406 794.8472 795.72205 796.8312 797.51855 798.5303 799.3082 800.0283 800.9264 801.4711 802.217 802.7547 803.21844 803.8081 804.15643 804.62836 804.96564 805.2518 805.615 805.8263 806.13184 806.3708 806.5768 806.8214 806.956 807.1043 807.1908 807.2339 807.2855 807.2976 807.3175 807.34314 807.3527 807.34106 807.31323 807.271 807.24585 807.2082 807.1474 807.09607 806.9914 806.9 806.78577 806.63275 806.5201 806.3372 806.1952 806.03876 805.82635 805.67554 805.4458 805.27905 805.0957 804.8328 804.6402 804.33203 804.0984 803.83655 803.47687 803.21954 802.7688 802.3854 801.9716 801.45465 801.11316 800.594 800.20874 799.8031 799.2351 798.83167 798.2263 797.78424 797.3174 796.66223 796.196 795.4831 794.93256 794.3807 793.6849 793.2407 792.5093 791.8964 791.2842 790.565 790.1363 789.4144 788.83344 788.1953 787.3306 786.7201 785.76587 785.0281 784.2584 783.23676 782.54114 781.5009 780.7254 779.9404 778.88367 778.1666 777.0871 776.27496 775.4533 774.3835 773.6805 772.45984 771.434 770.3248 768.9085 767.9574 766.4934 765.4424 764.2504 762.4373 761.0436 759.01135 757.4636 756.0151 754.25256 753.20135 751.742 750.68835 749.7508 748.5499 747.8232 746.69794 745.798 744.9332 743.9557 743.4197 742.147 740.9206 739.415 737.36676 735.8425 733.958 732.7667 731.80963 730.4344 729.54974 728.8181
109.640114 109.16557 108.58452 108.25561 107.91337 107.788086 107.687065 107.388596 107.11399 106.70365 106.407104 106.086716 105.65701 105.36061 104.79406 104.266556 103.71227 103.13498 102.828735 102.02377 100.74392 100.01443 100.71628 102.32738 103.64207 103.95407 103.76057 103.44942 102.977 102.92246 103.51105 104.071945 104.080086 103.695854 102.7663 101.829384 100.69878 99.37958 98.50815 97.280594 96.32953 95.540764 94.82889 94.61803 93.583244 92.29421 90.74186 88.83407 87.50309 86.3753 84.854095 85.718254 90.24933 96.06605 105.308586 107.51682 118.314156 142.99887 167.97389 233.51524 301.68207 383.49744 486.10843 558.23376 631.11426 666.7682 679.63934 696.1363 696.8795 697.28046 696.68665 695.53955 697.4247 700.23914 703.9728 706.77026 708.9748 710.88 711.35565 712.1243 713.0352 713.43835 712.9761 711.8949 711.44226 711.913 712.8104 713.5815 714.061 714.8413 715.50494 716.14075 716.8684 717.28235 717.83966 718.22406 718.5631 719.00336 719.2689 719.80414 720.24316 720.8326 721.74884 722.4974 723.5724 724.3376 725.1136 726.1779 726.91064 728.01306 728.85236 729.68555 730.7676 731.47345 732.54236 733.35815 734.172 735.25824 735.9872 736.97797 737.64355 738.28253 739.19476 739.8229 740.84827 741.6781 742.5461 743.64886 744.3729 745.53625 746.48456 747.436 748.61584 749.36115 750.4449 751.2397 752.0142 753.05164 753.738 754.8163 755.64246 756.5218 757.7345 758.5905 759.8605 760.8201 761.7585 762.9756 763.7641 764.88794 765.69446 766.474 767.5354 768.2449 769.3325 770.17175 771.01697 772.1201 772.8482 773.94696 774.78326 775.6163 776.70746 777.4255 778.5192 779.354 780.19727 781.30994 782.05115 783.1968 784.0912 784.9885 786.15247 786.917 788.0036 788.75543 789.52167 790.65 791.4673 792.6787 793.5983 794.4911 795.6251 796.3433 797.40295 798.2166 798.9768 799.9301 800.5147 801.32135 801.90454 802.416 803.07294 803.4695 804.0043 804.3919 804.70984 805.0869 805.28424 805.58575 805.82916 806.05206 806.32935 806.4967 806.6913 806.8116 806.8868 806.9783 807.0148 807.0677 807.1176 807.1464 807.15784 807.14215 807.10767 807.07733 807.0354 806.98553 806.9508 806.86475 806.7827 806.67645 806.5361 806.4321 806.2625 806.1308 805.98364 805.7815 805.63617 805.4146 805.2545 805.07733 804.8215 804.6329 804.33124 804.1025 803.8468 803.49603 803.24567 802.80853 802.4365 802.0378 801.5447 801.2232 800.7271 800.35706 799.96027 799.3997 798.9961 798.3863 797.9381 797.4622 796.7973 796.3245 795.59717 795.033 794.4643 793.74084 793.2734 792.53577 791.9304 791.3496 790.6811 790.3009 789.6659 789.1708 788.6089 787.80396 787.2075 786.2704 785.53925 784.7777 783.7833 783.1153 782.1144 781.3697 780.61176 779.5819 778.8766 777.81976 777.02795 776.2296 775.1895 774.5066 773.32886 772.33606 771.2779 769.9461 769.0679 767.72626 766.7782 765.6938 764.0119 762.702 760.7833 759.3156 757.93726 756.2699 755.2796 753.8803 752.8153 751.90875 750.8629 750.3166 749.52814 749.0797 748.45953 747.26385 746.20264 744.32825 742.7305 740.9748 738.6678 737.05554 735.3195 734.396 733.894 733.1525 732.79553 732.56494
109.87871 109.41285 108.83506 108.50647 108.1819 108.098495 108.01994 107.69394 107.362656 106.8589 106.50305 106.08976 105.50734 105.08077 104.22961 103.26901 102.49071 102.179054 102.441475 102.29868 101.52653 101.03242 101.51147 102.55667 103.76702 104.647736 105.09337 104.99073 104.35776 103.8432 103.82737 103.835884 103.560394 103.24214 102.55961 102.01097 101.19342 99.92339 98.86666 97.09093 95.744576 94.102646 92.223625 91.07845 86.02127 79.806244 72.33316 63.34556 57.1696 52.262875 44.182205 49.69117 77.72145 113.19693 167.37785 207.14952 251.48581 312.35056 355.9762 422.3583 473.64807 524.64465 593.87555 641.3473 687.02155 707.2759 711.2794 716.888 713.6466 709.8507 707.1517 705.21075 705.2854 707.0783 708.86926 709.5447 710.06714 711.076 711.8516 712.8633 713.7256 714.20667 714.15485 713.57587 713.3673 713.669 714.20197 714.6704 714.9557 715.5238 716.0479 716.63245 717.3638 717.85657 718.5241 718.97974 719.4029 719.97076 720.3362 720.99133 721.5193 722.1559 723.0852 723.7981 724.8269 725.5621 726.30786 727.3373 728.04926 729.1206 729.93634 730.74634 731.79663 732.481 733.5216 734.3196 735.1163 736.1762 736.88617 737.84576 738.4823 739.0971 739.9897 740.6133 741.6375 742.47107 743.3448 744.4507 745.1756 746.3331 747.27167 748.2114 749.3818 750.12305 751.19775 751.9826 752.7481 753.778 754.46216 755.5394 756.3718 757.24994 758.4402 759.2666 760.5126 761.4697 762.41077 763.6207 764.4013 765.5102 766.30365 767.0678 768.1117 768.81006 769.86957 770.6825 771.49194 772.54663 773.238 774.26575 775.0395 775.7999 776.7946 777.4436 778.4464 779.2178 780.00824 781.056 781.7612 782.85785 783.7189 784.5852 785.70325 786.4355 787.48114 788.22095 788.95636 789.9894 790.70496 791.81885 792.6932 793.5762 794.7097 795.44977 796.5381 797.36804 798.1484 799.13257 799.74164 800.5884 801.20337 801.7501 802.45605 802.8881 803.4716 803.8934 804.2426 804.6657 804.8953 805.21515 805.44293 805.65045 805.9468 806.1477 806.3872 806.5387 806.6428 806.7697 806.8277 806.907 806.97473 807.01654 807.04535 807.0396 807.0086 806.97015 806.9198 806.8744 806.8508 806.77606 806.6986 806.5957 806.46136 806.36194 806.1989 806.0725 805.9301 805.7332 805.5907 805.3733 805.2165 805.0424 804.7906 804.6044 804.30695 804.0812 803.8291 803.4837 803.2374 802.8087 802.44305 802.0541 801.5785 801.2728 800.7897 800.42285 800.02356 799.4616 799.0559 798.43866 797.982 797.4961 796.82104 796.3426 795.603 795.0287 794.44617 793.6881 793.18536 792.4747 791.95435 791.4761 790.88104 790.5249 789.92285 789.4508 788.9085 788.1332 787.5567 786.65405 785.9506 785.2211 784.27234 783.63824 782.68835 781.98517 781.26447 780.27496 779.58997 778.56067 777.7877 777.0056 775.9862 775.31525 774.1644 773.192 772.1675 770.89276 770.0647 768.80945 767.9352 766.92847 765.3413 764.09216 762.25323 760.8422 759.5087 757.89246 756.9265 755.5663 754.52783 753.65533 752.66815 752.1711 751.46075 751.0676 750.51575 749.4164 748.4264 746.7234 745.3143 743.7511 741.6842 740.2344 738.38293 737.1456 736.14386 734.7178 733.795 733.4047
110.24182 109.79763 109.24009 108.92003 108.598595 108.5234 108.42863 108.0497 107.65628 107.0459 106.591774 106.08599 105.43448 104.99487 104.01478 102.756714 101.83555 101.77905 102.51476 103.00493 102.870476 102.66616 102.72046 102.88665 103.58449 104.71284 105.57689 105.56812 104.836205 103.92892 103.370605 102.84393 102.19738 101.80788 101.22482 100.92755 100.40942 99.35176 98.366295 96.45736 94.774796 92.80043 90.54247 89.1403 85.29621 80.95203 76.26382 70.31204 66.15704 66.341866 59.73257 73.61839 123.55907 182.32982 271.64975 341.8506 411.3641 497.0273 551.03516 605.5173 629.923 640.16113 662.0146 674.878 687.8002 693.81177 695.86615 699.65576 701.00195 703.35767 705.644 707.52515 709.37775 710.1204 710.2871 709.42194 708.649 709.2291 710.50775 712.05273 713.07446 713.8277 714.4895 714.635 714.9066 715.1724 715.39813 715.6094 715.6814 716.0076 716.3463 716.8649 717.6635 718.33545 719.2391 719.8493 720.4254 721.2019 721.71014 722.51447 723.13715 723.7976 724.70105 725.33514 726.25714 726.9146 727.591 728.54816 729.2257 730.2559 731.04913 731.84033 732.8545 733.5105 734.50995 735.2787 736.0451 737.0601 737.7372 738.6585 739.27057 739.871 740.7502 741.3723 742.3964 743.23145 744.1084 745.2184 745.9471 747.0977 748.02106 748.9425 750.09845 750.8338 751.89935 752.6763 753.4351 754.458 755.139 756.21204 757.04895 757.9202 759.0752 759.8588 761.0602 761.99786 762.9254 764.1082 764.8681 765.9596 766.7493 767.5152 768.557 769.25433 770.3014 771.1003 771.88635 772.90796 773.5724 774.54736 775.27435 775.9795 776.8994 777.49384 778.4274 779.1527 779.9062 780.9091 781.5906 782.6492 783.48096 784.31555 785.3818 786.0725 787.0903 787.8519 788.59283 789.5524 790.1689 791.174 791.9869 792.83264 793.92914 794.66156 795.73914 796.5586 797.3355 798.3209 798.93665 799.8009 800.4317 801.0015 801.7408 802.19965 802.8223 803.2707 803.6507 804.12787 804.4032 804.7567 804.97974 805.17804 805.49554 805.7261 806.00696 806.18823 806.32056 806.48175 806.56036 806.6651 806.74884 806.80286 806.84985 806.8559 806.83276 806.7916 806.73737 806.69727 806.68243 806.61816 806.54675 806.44934 806.32306 806.2291 806.0739 805.9536 805.8166 805.6262 805.4873 805.27496 805.1214 804.9506 804.70386 804.5212 804.2295 804.0079 803.76056 803.42206 803.1809 802.762 802.40497 802.0261 801.56537 801.27136 800.7963 800.4296 800.0266 799.46466 799.0598 798.4391 797.97614 797.48267 796.80133 796.3201 795.573 794.98773 794.3972 793.6279 793.1173 792.45825 792.0347 791.658 791.12756 790.77997 790.1832 789.7067 789.1593 788.3945 787.8335 786.96387 786.28986 785.5981 784.70026 784.1043 783.2125 782.55615 781.87885 780.93945 780.28253 779.28735 778.5363 777.7698 776.7693 776.10736 774.9779 774.0227 773.0256 771.796 771.00684 769.82007 769.0036 768.0613 766.5576 765.36633 763.6041 762.2472 760.9583 759.3942 758.45514 757.1406 756.1427 755.30853 754.36615 753.89526 753.204 752.7552 752.2278 751.3403 750.6201 749.3428 748.30145 747.0739 745.4032 744.18933 742.21185 740.5941 738.9324 736.6103 734.9433 734.0115
110.86237 110.41313 109.861595 109.54554 109.18469 109.05419 108.875595 108.38988 107.915375 107.16527 106.51479 105.92906 105.45 105.326096 104.66484 103.553314 102.70857 102.72386 103.45755 104.10997 104.35653 104.36943 104.158516 103.78001 103.90465 104.7095 105.4189 105.37533 104.788445 103.89597 103.27161 102.506836 101.47646 100.729164 99.27953 98.62107 96.76601 92.34491 87.8351 81.40694 75.49606 71.66354 68.60011 68.23045 80.01824 96.87548 119.99856 145.92921 163.37234 192.99332 211.32114 241.30927 299.12918 352.22736 432.6172 496.91046 557.66064 630.6764 674.53143 711.12036 720.30554 713.8735 713.3156 710.24396 707.7302 707.07336 707.3747 708.0001 708.9544 710.43 711.7473 712.85315 713.80145 714.08777 713.72235 712.5408 711.5619 711.8523 712.9792 714.22473 714.90985 715.39734 715.9249 716.12726 716.4544 716.7421 716.98773 717.217 717.29626 717.60986 717.9192 718.4037 719.1733 719.8318 720.7465 721.38324 722.0057 722.8427 723.4 724.2649 724.93933 725.6229 726.5144 727.1055 727.96436 728.5741 729.20166 730.10077 730.74274 731.72345 732.483 733.24115 734.20654 734.8274 735.77734 736.5121 737.2438 738.2059 738.8433 739.7203 740.3074 740.89154 741.7485 742.359 743.3666 744.18866 745.0544 746.1526 746.87604 748.0079 748.90686 749.8037 750.9394 751.6678 752.725 753.4962 754.2524 755.27295 755.95435 757.0245 757.86176 758.72375 759.8492 760.5997 761.7635 762.6819 763.59326 764.74774 765.48627 766.55524 767.33466 768.094 769.1242 769.8142 770.8431 771.62463 772.3882 773.38104 774.0253 774.9548 775.6406 776.29236 777.1387 777.67725 778.51697 779.1609 779.8339 780.74603 781.37585 782.3616 783.1404 783.9269 784.9265 785.573 786.54297 787.28546 788.0085 788.9237 789.50024 790.44556 791.2128 792.01294 793.04846 793.73944 794.77356 795.56836 796.3356 797.3121 797.9304 798.8072 799.4514 800.04254 800.8113 801.29407 801.95123 802.4242 802.8294 803.34015 803.6381 804.0306 804.2876 804.52 804.87573 805.12823 805.4447 805.65564 805.81714 806.0143 806.11536 806.249 806.3518 806.4216 806.4911 806.5115 806.5054 806.4736 806.42676 806.39935 806.39325 806.3444 806.286 806.2027 806.09406 806.0118 805.8733 805.7655 805.6399 805.4633 805.3323 805.1311 804.9851 804.82153 804.5851 804.4096 804.12915 803.91583 803.678 803.3529 803.1216 802.72095 802.3811 802.01917 801.5756 801.2903 800.8292 800.4742 800.08185 799.5331 799.1364 798.5208 798.05725 797.5602 796.8786 796.39844 795.6423 795.02985 794.4287 793.69366 793.23895 792.6444 792.2608 791.911 791.4042 791.06036 790.4704 789.9983 789.4573 788.7057 788.15686 787.3138 786.66296 786.0025 785.14984 784.5895 783.75116 783.1368 782.49976 781.60913 780.98157 780.0265 779.30396 778.5622 777.59174 776.9462 775.8533 774.92926 773.9749 772.809 772.07086 770.9713 770.2251 769.36304 767.97064 766.8606 765.20844 763.92847 762.70856 761.2337 760.34973 759.1132 758.17255 757.39105 756.5198 756.09546 755.4569 755.0175 754.522 753.73444 753.1201 752.0476 751.1919 750.1741 748.7741 747.7496 745.96124 744.4579 742.81116 740.511 738.82715 737.39417
111.41146 110.946045 110.395134 110.08205 109.66661 109.45169 109.167694 108.57656 108.040726 107.186035 106.34679 105.72858 105.54598 105.86947 105.75475 105.08574 104.465744 104.384 104.7433 105.138145 105.458046 105.55648 105.234924 104.67587 104.28781 104.386856 104.52126 104.32614 104.01848 103.458885 103.173874 102.507744 101.23552 100.0412 97.348755 96.00878 92.17053 83.18729 74.02164 61.7866 50.53883 44.55533 40.793465 42.048584 74.36195 118.87612 178.01222 245.36765 290.9082 356.9665 408.3954 453.88855 505.2432 532.1671 572.5361 604.99036 633.5947 668.68756 689.21796 706.882 712.20013 709.9902 709.5719 707.2471 706.7485 708.6272 711.28705 713.41864 714.4708 715.12756 714.88464 714.38544 714.5691 715.0331 715.3158 715.10144 714.96454 715.41833 716.09766 716.73334 716.9906 717.04755 717.03766 716.8899 717.04565 717.44476 717.9595 718.4138 718.6449 719.10223 719.4884 719.9729 720.6897 721.25037 722.0683 722.66504 723.26587 724.065 724.6 725.4458 726.1185 726.8027 727.68066 728.2566 729.0876 729.6736 730.2737 731.1372 731.7542 732.6997 733.43494 734.16864 735.0983 735.69385 736.60724 737.31635 738.0216 738.9433 739.5502 740.39716 740.9732 741.5522 742.3945 742.9937 743.9822 744.78705 745.6363 746.7182 747.4344 748.5482 749.4266 750.30414 751.4238 752.14716 753.20074 753.9719 754.7303 755.7532 756.437 757.50525 758.33923 759.1923 760.30164 761.0365 762.1774 763.07916 763.9735 765.10425 765.82605 766.8791 767.6528 768.4105 769.4351 770.12134 771.1439 771.9197 772.6778 773.66595 774.30884 775.2282 775.9044 776.5379 777.3568 777.8722 778.6561 779.24097 779.8494 780.69244 781.2821 782.2123 782.9504 783.70135 784.6552 785.27405 786.21234 786.9317 787.64624 788.5704 789.17035 790.11615 790.8654 791.625 792.59766 793.23145 794.20386 794.9655 795.714 796.66705 797.2766 798.14716 798.7901 799.3856 800.1602 800.6493 801.3165 801.7971 802.2103 802.72675 803.02527 803.4473 803.7535 804.03595 804.4239 804.6802 805.0088 805.23395 805.4102 805.6259 805.73926 805.88916 806.0028 806.0827 806.1667 806.197 806.2074 806.1909 806.1577 806.14166 806.1388 806.1005 806.0543 805.9847 805.8924 805.8207 805.69727 805.60065 805.48486 805.3208 805.19727 805.006 804.8668 804.70966 804.4825 804.3136 804.0434 803.8376 803.6081 803.295 803.0723 802.687 802.3626 802.0139 801.5796 801.2946 800.8424 800.50037 800.1231 799.5909 799.2046 798.59937 798.1403 797.645 796.969 796.49335 795.73303 795.09393 794.4869 793.81116 793.4422 792.9005 792.5025 792.113 791.5853 791.2332 790.63574 790.1601 789.6198 788.86847 788.32135 787.4865 786.844 786.19714 785.3656 784.8229 784.01135 783.4169 782.80066 781.9375 781.3288 780.40076 779.69836 778.9752 778.0266 777.3933 776.32654 775.42633 774.5012 773.3748 772.6655 771.6146 770.90497 770.08777 768.7649 767.7102 766.1342 764.9069 763.7377 762.33307 761.4968 760.3243 759.42957 758.68616 757.8627 757.46564 756.8512 756.41327 755.9197 755.1549 754.5659 753.5531 752.7412 751.8032 750.51935 749.5893 748.1131 746.9869 745.75275 744.0174 742.75885 740.9265
111.90094 111.44601 110.88643 110.54597 109.99908 109.56721 109.114136 108.529625 108.142555 107.411575 106.54896 105.95311 105.94877 106.48609 106.82931 106.773994 106.55734 106.345406 106.16942 106.072365 106.23603 106.27421 105.87997 105.328606 104.51162 103.88032 103.265495 102.62458 102.305244 101.46617 100.782036 99.64027 97.44889 95.4028 93.46197 91.32659 91.93148 96.84 103.46974 113.06339 118.23582 126.4267 136.93266 144.27596 188.306 243.6402 314.09027 395.88788 451.0683 528.17847 591.095 637.8654 675.52374 680.7916 687.94995 693.70624 696.11646 700.2098 701.9488 704.44086 706.71136 708.0923 708.2235 706.96313 707.8994 710.9472 714.4667 717.09265 718.00684 718.1687 717.21765 716.0659 715.96576 716.5642 717.31244 717.8092 718.23846 718.7009 718.9296 719.02814 718.9361 718.72986 718.4899 718.2866 718.45905 718.9372 719.58563 720.18 720.51086 721.03046 721.41974 721.84436 722.4585 722.90936 723.6201 724.1735 724.75525 725.5137 726.0238 726.8491 727.52106 728.20685 729.0702 729.6286 730.4302 730.9924 731.5657 732.3943 732.9869 733.8992 734.61163 735.3241 736.2248 736.8015 737.68475 738.3708 739.0508 739.9335 740.5101 741.3316 741.9056 742.485 743.3099 743.88934 744.8418 745.61444 746.4299 747.47546 748.1713 749.248 750.0898 750.9346 752.02386 752.73517 753.78 754.5507 755.31354 756.3388 757.0248 758.0883 758.916 759.75525 760.8415 761.55536 762.6638 763.5395 764.40814 765.50616 766.2068 767.24194 768.0118 768.7724 769.7958 770.4814 771.5046 772.281 773.0419 774.03674 774.6868 775.6103 776.28406 776.914 777.73755 778.26105 779.0346 779.6022 780.17426 780.95905 781.4964 782.3464 783.0209 783.7099 784.5903 785.1651 786.0441 786.71857 787.3988 788.29395 788.8889 789.7938 790.4933 791.18445 792.0658 792.6302 793.5068 794.1977 794.88477 795.7645 796.3332 797.1564 797.7688 798.3472 799.1034 799.58777 800.2591 800.74725 801.1784 801.7196 802.0395 802.5093 802.869 803.2014 803.6247 803.8866 804.2315 804.47504 804.6707 804.91 805.03827 805.2084 805.33514 805.42773 805.5296 805.572 805.6076 805.61694 805.60974 805.6188 805.6279 805.61035 805.5818 805.53033 805.461 805.4044 805.3024 805.2218 805.1205 804.9749 804.8626 804.6859 804.5561 804.4072 804.193 804.03326 803.7773 803.5819 803.36414 803.06775 802.85706 802.49414 802.19196 801.86285 801.4439 801.1623 800.71674 800.37946 800.0095 799.4926 799.12067 798.5331 798.08417 797.59814 796.9333 796.4637 795.73145 795.12396 794.5607 793.9522 793.6395 793.1274 792.713 792.286 791.73236 791.36597 790.7506 790.2619 789.71295 788.9529 788.40326 787.5724 786.9361 786.3028 785.4912 784.9661 784.183 783.6103 783.01855 782.19 781.6066 780.7145 780.03827 779.3395 778.41956 777.8025 776.7701 775.90027 775.01324 773.93896 773.2682 772.2842 771.6242 770.87225 769.65405 768.6856 767.23444 766.0994 765.01965 763.732 762.97186 761.89984 761.0784 760.39136 759.63074 759.2627 758.67035 758.2284 757.73016 756.98413 756.42004 755.4707 754.7084 753.8583 752.7041 751.88055 750.70996 749.92413 749.079 747.87976 747.0274 745.1024
112.0941 111.70187 111.07742 110.60032 109.78464 108.99597 108.32653 107.87356 107.86022 107.48307 106.77133 106.21893 106.16602 106.558464 107.109 107.68306 107.98097 107.68305 106.990234 106.36561 106.22484 106.15034 105.89831 105.69125 104.875755 104.00816 102.770676 101.71692 101.25382 96.72654 91.12768 83.185 71.34335 61.518505 55.216503 47.390812 57.146225 95.24083 141.68164 205.00594 251.52255 292.06262 333.19977 351.05252 391.37152 431.28467 475.89755 530.9228 567.6002 618.15247 659.3544 688.8457 711.0495 711.87994 712.0246 711.67126 709.2198 707.455 706.0896 706.2264 708.18445 710.50024 711.33954 710.8513 711.528 713.22235 715.0974 716.5373 717.0366 717.3708 717.2147 717.04004 717.4735 718.1084 718.87256 719.4019 719.7475 719.99243 719.96564 719.83984 719.6197 719.45325 719.4745 719.635 720.0671 720.54474 721.085 721.6353 721.943 722.3866 722.686 723.00995 723.5152 723.9012 724.5481 725.0748 725.64795 726.38293 726.8787 727.69305 728.3656 729.0536 729.90906 730.45734 731.24426 731.79596 732.35876 733.1736 733.7571 734.65845 735.36395 736.0718 736.96814 737.54395 738.4209 739.0996 739.7691 740.63477 741.1965 742.0104 742.5935 743.1803 743.9952 744.557 745.4769 746.22 747.00336 748.0132 748.68744 749.7294 750.5396 751.3572 752.4198 753.1198 754.1572 754.9289 755.69727 756.7251 757.41254 758.472 759.2943 760.1222 761.1897 761.88635 762.96936 763.8251 764.67505 765.74976 766.43604 767.46155 768.2317 768.9989 770.0269 770.7161 771.7477 772.5313 773.30225 774.31354 774.9773 775.91254 776.58185 777.21484 778.06915 778.6308 779.4501 780.0582 780.6458 781.4121 781.90576 782.6876 783.30774 783.9407 784.7561 785.2922 786.1133 786.7441 787.3821 788.2243 788.7866 789.62964 790.2727 790.9036 791.7158 792.23846 793.0355 793.6523 794.2624 795.0521 795.5655 796.3204 796.8856 797.43274 798.1549 798.6272 799.29846 799.7935 800.2487 800.83057 801.18964 801.7084 802.10205 802.4592 802.90533 803.1732 803.53204 803.7903 804.0011 804.2582 804.39734 804.58215 804.7191 804.8208 804.93365 804.982 805.0368 805.06824 805.0862 805.1224 805.1475 805.15076 805.13605 805.0964 805.0437 804.9979 804.9115 804.84247 804.752 804.6202 804.5166 804.3507 804.22723 804.08417 803.879 803.7258 803.48 803.29224 803.083 802.7986 802.59705 802.2508 801.96564 801.65173 801.2457 800.9684 800.5215 800.1741 799.79614 799.28394 798.924 798.35486 797.92114 797.4496 796.7901 796.3151 795.6295 795.1103 794.63293 794.06714 793.7444 793.2185 792.7961 792.356 791.7864 791.4076 790.77344 790.26855 789.7058 788.9319 788.3761 787.542 786.90607 786.2785 785.4755 784.9591 784.1921 783.63245 783.057 782.25214 781.6871 780.82043 780.1627 779.4808 778.5807 777.97473 776.9651 776.1146 775.25287 774.215 773.57263 772.63965 772.01746 771.3172 770.18286 769.2843 767.9379 766.8841 765.88336 764.6937 763.9946 763.0022 762.23926 761.5942 760.8766 760.5235 759.93964 759.49115 758.9846 758.2438 757.69037 756.77454 756.0418 755.2413 754.16077 753.3984 752.35486 751.67554 750.9745 749.98236 749.2916 747.6842
112.069016 111.70428 111.09289 110.61524 109.7228 108.74327 107.97811 107.70358 108.01408 108.00285 107.56511 107.12378 106.92206 106.97918 107.43216 108.32205 108.91474 108.523155 107.50372 106.41075 105.84268 105.470604 105.1943 105.23115 104.40707 103.26347 101.6295 99.94152 98.908226 95.06377 90.53646 85.110855 77.02023 70.47527 71.5821 66.4736 87.36623 153.92278 230.31093 334.37952 413.17795 478.04712 541.5237 566.1085 594.4342 610.80945 620.6061 637.7366 648.4907 662.91675 673.9136 682.0448 689.9189 692.41455 694.9879 696.06305 696.50146 698.0699 699.33203 702.20593 705.3632 708.4546 711.22046 712.3496 713.4517 713.8966 713.9969 714.35876 714.5583 715.327 716.2871 717.35345 718.4447 719.05676 719.67926 720.01117 720.1033 720.1565 720.0493 719.9558 719.82245 719.8801 720.31396 720.87836 721.5778 722.02435 722.3985 722.85895 723.117 723.4581 723.65137 723.87354 724.28156 724.6241 725.2299 725.74164 726.3126 727.0315 727.51495 728.3188 728.98987 729.67847 730.5287 731.0713 731.85126 732.39905 732.9585 733.76764 734.34686 735.24457 735.94745 736.656 737.5574 738.14026 739.022 739.7008 740.3675 741.2293 741.78705 742.6042 743.20197 743.7981 744.60486 745.1486 746.03345 746.7446 747.49194 748.46 749.10815 750.1099 750.8861 751.6744 752.7064 753.39197 754.41833 755.18884 755.9609 756.9889 757.6761 758.72974 759.5449 760.3618 761.415 762.10077 763.1624 763.9971 764.8265 765.8796 766.5543 767.5736 768.34607 769.12146 770.1564 770.85046 771.89404 772.6887 773.4745 774.5062 775.18555 776.1495 776.83856 777.503 778.4165 779.03204 779.9241 780.596 781.2221 781.99805 782.466 783.1965 783.76825 784.3463 785.10443 785.60754 786.37354 786.9598 787.54956 788.3274 788.84485 789.61566 790.1985 790.76996 791.5164 792.00305 792.7241 793.26666 793.7969 794.4923 794.94635 795.62537 796.13763 796.64606 797.32324 797.77466 798.4334 798.9267 799.3972 800.00854 800.4001 800.95233 801.36255 801.72797 802.18396 802.4541 802.8204 803.0872 803.30756 803.5752 803.7208 803.9143 804.0563 804.16394 804.2858 804.34094 804.4156 804.47015 804.51355 804.57654 804.61707 804.6401 804.6383 804.6098 804.57306 804.5378 804.4665 804.4088 804.329 804.21094 804.11615 803.9609 803.8436 803.7057 803.50916 803.3622 803.12585 802.9449 802.74347 802.4702 802.277 801.9462 801.6769 801.37714 800.98413 800.7121 800.26404 799.9064 799.5192 799.00885 798.6577 798.10254 797.67737 797.21844 796.5739 796.10876 795.4819 795.0571 794.66174 794.121 793.765 793.2076 792.77576 792.3272 791.741 791.34894 790.69324 790.16943 789.5897 788.79865 788.23474 787.394 786.75574 786.1296 785.32745 784.8127 784.05164 783.49725 782.93146 782.1431 781.59296 780.747 780.10394 779.43604 778.5528 777.95654 776.9671 776.134 775.29425 774.286 773.66534 772.77277 772.1788 771.522 770.464 769.6328 768.3906 767.4195 766.50085 765.41187 764.77545 763.86444 763.1623 762.5588 761.87823 761.5321 760.94714 760.4877 759.9668 759.2192 758.66595 757.7613 757.03973 756.2628 755.2218 754.4953 753.5101 752.8565 752.2182 751.3166 750.6984 749.55743
111.94056 111.44721 111.04269 110.946526 110.48201 109.74923 109.15139 109.026695 109.36114 109.53658 109.46143 109.25313 108.92188 108.60297 108.60875 109.19177 109.58391 109.1431 108.26052 106.9883 106.12519 105.14045 104.24727 103.89039 100.198044 94.92743 88.82197 80.361984 73.7876 79.5408 91.70926 115.134 148.82999 177.63666 218.36542 239.81659 272.74316 341.00983 404.62067 493.04984 562.30444 618.2712 672.0617 691.7005 707.7538 711.5141 706.7754 706.31995 705.3635 703.60205 701.5558 700.07684 700.1139 701.4611 702.40204 702.1752 701.9001 702.2304 702.7719 704.5418 706.6384 709.00793 711.5299 713.02875 714.28326 714.517 714.3559 714.60046 714.81854 715.6921 716.8387 718.0453 719.1021 719.5547 719.9573 720.0898 720.0541 720.07837 720.0545 720.1896 720.32294 720.6636 721.3582 722.0459 722.8212 723.248 723.5548 723.995 724.25574 724.55963 724.6918 724.8434 725.18304 725.4883 726.06647 726.5774 727.1589 727.87463 728.3518 729.1532 729.82947 730.5225 731.369 731.90356 732.6726 733.2132 733.76434 734.56036 735.1291 736.014 736.7075 737.41046 738.3093 738.8948 739.7763 740.4514 741.11414 741.97266 742.52893 743.3487 743.9573 744.55743 745.352 745.87555 746.7206 747.3951 748.1008 749.0201 749.6367 750.5889 751.3224 752.0726 753.0642 753.7304 754.7383 755.5022 756.2736 757.29694 757.9817 759.02637 759.83136 760.63544 761.67566 762.35394 763.3909 764.19446 764.99164 766.0148 766.67535 767.68604 768.46045 769.2439 770.2829 770.9787 772.03015 772.83307 773.6317 774.67633 775.3633 776.3738 777.12415 777.86145 778.85156 779.51306 780.4611 781.17505 781.82306 782.6128 783.07367 783.7639 784.28265 784.7975 785.4967 785.9696 786.67944 787.2172 787.7525 788.45807 788.92505 789.6143 790.13086 790.63513 791.2998 791.73553 792.3739 792.8473 793.3098 793.9241 794.32855 794.9447 795.4144 795.89026 796.52594 796.9546 797.59125 798.073 798.5426 799.1567 799.5568 800.11865 800.5344 800.9038 801.36316 801.6336 802.00476 802.2783 802.50653 802.78296 802.934 803.1331 803.27484 803.38556 803.52 803.5895 803.6919 803.7738 803.8441 803.93164 803.9826 804.02344 804.037 804.0241 804.00793 803.9864 803.93463 803.89154 803.8252 803.7245 803.6409 803.49927 803.39026 803.2594 803.07385 802.9347 802.71014 802.5375 802.3455 802.0858 801.9024 801.5902 801.339 801.0563 800.6794 800.41425 799.97363 799.6197 799.2346 798.72974 798.3833 797.82983 797.3931 796.9357 796.32623 795.90765 795.34094 794.96356 794.59924 794.0729 793.7053 793.13257 792.6924 792.23224 791.6282 791.2217 790.5441 790.00165 789.40625 788.5998 788.0296 787.18567 786.54913 785.9281 785.1296 784.6168 783.86237 783.31323 782.7574 781.9876 781.4548 780.6328 780.00653 779.3547 778.4912 777.9069 776.943 776.134 775.32227 774.3483 773.75037 772.90027 772.3346 771.72504 770.75574 770.00555 768.8877 768.0138 767.1931 766.22656 765.6686 764.8625 764.24164 763.6964 763.06836 762.7343 762.1526 761.68115 761.14606 760.3998 759.8566 758.97986 758.2819 757.54504 756.5667 755.89404 755.0053 754.4256 753.8845 753.106 752.57324 751.7317
111.70205 111.01294 110.88344 111.31268 111.50741 111.28078 111.00594 110.959 111.07402 111.22681 111.45698 111.48583 111.05742 110.43109 109.82741 109.67781 109.52615 109.09756 108.70507 107.58219 106.62783 105.022896 103.32119 102.26532 94.80961 84.31102 72.63005 55.62075 42.024284 60.55133 94.85428 155.9255 244.08627 318.87335 408.22415 464.06543 504.79916 553.05035 575.5544 610.3862 641.1977 665.58276 688.11993 695.30145 701.2755 702.7988 701.1034 701.22174 701.1322 701.083 700.84503 701.03424 702.2297 703.7284 705.17737 705.7152 705.9753 706.53156 706.8865 707.63965 708.26636 709.1343 710.5353 711.7136 713.15906 714.0713 714.7955 715.7125 716.2181 717.0288 717.7544 718.36945 718.9732 719.2214 719.3842 719.30835 719.2175 719.35095 719.5622 720.0654 720.5565 721.16425 721.95056 722.51984 723.2018 723.61316 723.9306 724.38965 724.6771 724.9968 725.12274 725.2604 725.5911 725.8914 726.475 727.00055 727.59937 728.32587 728.805 729.6113 730.2944 730.99194 731.8392 732.3705 733.13477 733.67285 734.2198 735.00806 735.5697 736.4454 737.1318 737.8301 738.7268 739.31415 740.19727 740.8714 741.53467 742.398 742.9604 743.786 744.3998 744.9991 745.78546 746.2975 747.11847 747.77057 748.44995 749.3373 749.93274 750.85144 751.5562 752.2804 753.2435 753.8949 754.8871 755.64307 756.4104 757.42694 758.1083 759.14545 759.9423 760.7391 761.77563 762.4555 763.47925 764.2595 765.03125 766.03406 766.68695 767.69324 768.4695 769.258 770.29785 770.99274 772.0468 772.85376 773.65936 774.70703 775.393 776.44714 777.26886 778.08484 779.13885 779.825 780.8014 781.5313 782.1888 783.0006 783.4789 784.16406 784.65485 785.1323 785.80414 786.26654 786.94867 787.45874 787.9592 788.61786 789.0499 789.6872 790.16425 790.6297 791.2436 791.64575 792.2396 792.68164 793.11786 793.6985 794.0836 794.6742 795.1273 795.5882 796.20074 796.613 797.2267 797.6923 798.1465 798.7385 799.12335 799.6666 800.0699 800.43115 800.88214 801.15015 801.51917 801.7922 802.0211 802.2976 802.44885 802.6459 802.7812 802.8896 803.03204 803.11426 803.2364 803.3356 803.4206 803.5188 803.57086 803.6189 803.6413 803.63904 803.636 803.62335 803.58435 803.55054 803.4927 803.40326 803.3268 803.194 803.09033 802.96405 802.7856 802.6511 802.4337 802.266 802.0794 801.82776 801.64996 801.3485 801.1072 800.83453 800.4677 800.2076 799.7769 799.4344 799.05786 798.55695 798.2082 797.64484 797.185 796.71924 796.1456 795.783 795.2528 794.86847 794.4821 793.94775 793.57947 793.003 792.5589 792.0927 791.4789 791.0639 790.37384 789.82117 789.21716 788.40283 787.8299 786.98535 786.35126 785.7334 784.9353 784.4209 783.66565 783.11566 782.5621 781.79987 781.276 780.46594 779.8478 779.20404 778.3511 777.7733 776.82446 776.03094 775.2358 774.27856 773.68945 772.8573 772.3013 771.71423 770.7942 770.0926 769.0503 768.23566 767.4761 766.587 766.07947 765.34314 764.7783 764.2741 763.68066 763.353 762.7716 762.2918 761.7472 761.00214 760.4664 759.6057 758.9203 758.2034 757.2578 756.6132 755.76935 755.225 754.7212 753.976 753.4557 752.7129
111.632225 110.9896 111.129486 111.8899 112.57772 112.835846 112.87281 112.82041 112.630714 112.5627 112.822296 112.904396 112.44907 111.77258 110.73128 109.918564 109.07916 108.266754 107.899956 106.14482 103.782135 101.25134 98.25592 96.26352 97.802216 100.44916 107.6285 113.775894 117.1734 159.8415 212.10143 289.5976 399.14548 487.5096 589.44867 656.2208 693.68353 719.21545 710.5866 703.9587 704.0334 703.51874 701.8314 699.88855 698.3694 698.1203 698.5048 698.66034 698.84515 699.555 700.27606 701.37006 703.0186 704.3929 706.1233 707.3195 708.20703 709.162 709.554 709.8416 709.6646 709.6365 710.3266 711.2306 712.72375 714.035 715.2963 716.6057 717.27325 717.9855 718.36334 718.5376 718.81665 718.94073 719.0479 718.9855 719.02563 719.3708 719.7955 720.601 721.3631 722.1523 722.9933 723.46075 724.0531 724.4359 724.74744 725.2093 725.5145 725.84515 725.96735 726.09784 726.4258 726.72614 727.31964 727.86273 728.47876 729.215 729.6936 730.49536 731.17426 731.86237 732.69354 733.20996 733.9519 734.4738 735.0026 735.7642 736.3058 737.1524 737.8152 738.4943 739.37335 739.9549 740.829 741.49457 742.152 743.01135 743.57446 744.39966 745.0162 745.6119 746.3832 746.8769 747.6623 748.2819 748.9241 749.76654 750.33234 751.20593 751.8738 752.5648 753.49066 754.1221 755.0918 755.83527 756.59515 757.60114 758.27716 759.30457 760.09125 760.8797 761.9122 762.59406 763.6105 764.3774 765.13306 766.12054 766.765 767.76184 768.5314 769.3169 770.35516 771.0517 772.1108 772.92267 773.7356 774.7886 775.47626 776.56116 777.4296 778.29785 779.39716 780.1036 781.1054 781.8507 782.52155 783.3601 783.8607 784.554 785.0342 785.4895 786.1415 786.59033 787.24817 787.7393 788.21533 788.83624 789.2379 789.8287 790.2701 790.699 791.26465 791.6344 792.1846 792.59625 793.0053 793.5501 793.9125 794.471 794.9024 795.3406 795.91766 796.30304 796.87866 797.3171 797.74506 798.30164 798.6628 799.174 799.55383 799.8963 800.3263 800.5843 800.94055 801.20404 801.4262 801.6942 801.8413 802.0385 802.1762 802.2933 802.4513 802.54895 802.691 802.80414 802.90045 803.0096 803.0655 803.12476 803.15924 803.1716 803.18677 803.187 803.16626 803.1458 803.10065 803.0275 802.9615 802.8419 802.7467 802.62775 802.4597 802.33215 802.1249 801.964 801.78503 801.54504 801.37604 801.0907 800.8645 800.60675 800.2554 800.003 799.5866 799.25867 798.8948 798.40454 798.059 797.4975 797.028 796.56555 796.0332 795.7244 795.23236 794.84796 794.4447 793.90137 793.527 792.9375 792.4804 792.00024 791.3709 790.9467 790.24316 789.6788 789.0662 788.2451 787.67145 786.8285 786.1991 785.58514 784.78546 784.2662 783.5068 782.9536 782.4018 781.64844 781.136 780.34406 779.7389 779.1108 778.2794 777.7175 776.80133 776.04016 775.2791 774.35864 773.79034 772.9918 772.45404 771.9004 771.05145 770.4182 769.4786 768.7416 768.0613 767.277 766.84033 766.18994 765.685 765.2173 764.6542 764.3271 763.7382 763.24414 762.68427 761.93225 761.39825 760.54944 759.8759 759.1812 758.2718 757.65955 756.859 756.34375 755.8674 755.14624 754.63275 753.9749
